ply
format ascii 1.0
element vertex 1776
property float x
property float y
property float z
property uint16 reflectance
end_header
1796.0 2728.0 2002.0 16709
1796.0 2730.0 2010.0 16126
1796.0 2733.0 1906.0 19540
1796.0 2811.0 1373.0 14741
1796.0 2833.0 2009.0 16580
1796.0 2884.0 1927.0 15268
1796.0 2891.0 1978.0 14805
1797.0 2041.0 2001.0 15520
1797.0 2132.0 2023.0 14141
1797.0 2161.0 2030.0 16867
1797.0 2210.0 1965.0 17016
1797.0 2263.0 1966.0 18287
1797.0 2296.0 1973.0 16058
1797.0 2320.0 2033.0 14727
1797.0 2370.0 1981.0 16667
1797.0 2496.0 2033.0 17694
1797.0 2503.0 1964.0 15875
1797.0 2547.0 2025.0 14428
1797.0 2635.0 2025.0 15475
1797.0 2715.0 1914.0 15596
1797.0 2786.0 2010.0 16315
1797.0 2814.0 1933.0 16453
1797.0 2822.0 1947.0 17819
1797.0 2875.0 2007.0 14477
1798.0 1964.0 1990.0 16453
1798.0 2015.0 2003.0 17097
1798.0 2028.0 2016.0 15946
1798.0 2207.0 1965.0 15759
1798.0 2380.0 1975.0 13441
1798.0 2536.0 1926.0 15953
1798.0 2687.0 2015.0 14655
1798.0 2849.0 1955.0 14763
1798.0 3179.0 3049.0 16220
1799.0 1707.0 2023.0 13604
1799.0 1713.0 2016.0 17257
1799.0 1874.0 2061.0 19328
1799.0 2350.0 2039.0 15541
1799.0 2429.0 1977.0 16569
1799.0 2466.0 2046.0 16450
1799.0 2467.0 1955.0 15154
1799.0 2493.0 1950.0 16880
1799.0 2493.0 2040.0 16279
1799.0 2495.0 1958.0 14556
1799.0 2631.0 1921.0 15066
1799.0 2747.0 1958.0 15278
1799.0 2800.0 2003.0 15600
1800.0 1868.0 2033.0 14222
1800.0 1921.0 1991.0 16453
1800.0 2052.0 2023.0 23277
1800.0 2140.0 1989.0 17129
1800.0 2341.0 1971.0 15162
1800.0 2443.0 1976.0 15439
1800.0 2605.0 1924.0 16643
1800.0 2673.0 1929.0 14642
1801.0 1700.0 2026.0 19912
1801.0 1947.0 1987.0 16453
1801.0 2186.0 2023.0 16375
1801.0 2213.0 2030.0 20775
1801.0 2281.0 2025.0 15665
1801.0 2306.0 1977.0 15779
1801.0 2371.0 2009.0 16809
1801.0 2579.0 1927.0 16462
1801.0 2598.0 2013.0 15974
1801.0 2639.0 1947.0 12448
1801.0 2877.0 1947.0 9667
1801.0 3213.0 2917.0 13925
1802.0 1815.0 2054.0 15045
1802.0 2006.0 1996.0 16449
1802.0 2091.0 2049.0 17138
1802.0 2135.0 2037.0 15172
1802.0 2172.0 1967.0 18536
1802.0 2387.0 2042.0 15001
1802.0 2413.0 1964.0 13913
1802.0 2518.0 1937.0 17861
1802.0 2620.0 1957.0 16263
1802.0 2648.0 740.0 17156
1802.0 2665.0 1994.0 15446
1802.0 2727.0 2014.0 16792
1802.0 2732.0 1179.0 15965
1803.0 1810.0 2056.0 17816
1803.0 2220.0 1970.0 14348
1803.0 2255.0 2032.0 13389
1803.0 2269.0 1970.0 17466
1803.0 2288.0 2007.0 15287
1803.0 2313.0 1985.0 16353
1803.0 2314.0 2023.0 16100
1803.0 2382.0 1974.0 16264
1803.0 2435.0 2047.0 16235
1803.0 2537.0 1935.0 16312
1803.0 2711.0 1935.0 18697
1803.0 2765.0 1904.0 18011
1804.0 1735.0 2031.0 16453
1804.0 1876.0 2055.0 12619
1804.0 1897.0 1999.0 21302
1804.0 1909.0 2018.0 23709
1804.0 1942.0 2024.0 16453
1804.0 2095.0 1977.0 27021
1804.0 2129.0 1974.0 8113
1804.0 2237.0 1976.0 14685
1804.0 2319.0 1972.0 23708
1804.0 2343.0 2012.0 14988
1804.0 2415.0 1999.0 14644
1804.0 2427.0 1965.0 18471
1804.0 2562.0 2025.0 15695
1804.0 2695.0 888.0 15716
1804.0 2699.0 1961.0 15350
1804.0 2784.0 1941.0 19164
1804.0 3542.0 3954.0 16577
1805.0 1832.0 2051.0 15011
1805.0 2139.0 1953.0 16574
1805.0 2157.0 2024.0 19019
1805.0 2207.0 2036.0 15620
1805.0 2262.0 2028.0 18257
1805.0 2273.0 2029.0 14737
1805.0 2297.0 1976.0 14063
1805.0 2345.0 1974.0 13992
1805.0 2396.0 2043.0 17127
1805.0 2399.0 1968.0 18821
1805.0 2405.0 1968.0 17338
1805.0 2443.0 1963.0 13026
1805.0 2457.0 1957.0 15608
1805.0 2492.0 2036.0 16875
1805.0 2752.0 1956.0 19461
1805.0 2774.0 1900.0 20560
1806.0 2088.0 1992.0 18130
1806.0 2104.0 2005.0 14060
1806.0 2164.0 1964.0 16412
1806.0 2206.0 1969.0 18189
1806.0 2430.0 1967.0 20058
1806.0 2447.0 2042.0 17845
1806.0 2448.0 2046.0 16521
1806.0 2549.0 1959.0 17777
1807.0 1880.0 2025.0 18858
1807.0 2268.0 1967.0 15865
1807.0 2309.0 2020.0 16053
1807.0 2319.0 2022.0 16289
1807.0 2363.0 2037.0 12986
1807.0 2519.0 2025.0 17187
1807.0 2768.0 1932.0 17706
1807.0 2813.0 1900.0 18078
1808.0 1980.0 1979.0 18531
1808.0 2038.0 2048.0 21459
1808.0 2369.0 1984.0 12443
1808.0 2498.0 1951.0 16692
1808.0 2717.0 1059.0 16168
1808.0 3110.0 2751.0 16350
1809.0 1787.0 2064.0 15329
1809.0 1857.0 2058.0 15045
1809.0 1861.0 2047.0 15561
1809.0 1948.0 2069.0 19818
1809.0 1971.0 2048.0 18973
1809.0 2133.0 1971.0 17666
1809.0 2133.0 1992.0 18836
1809.0 2203.0 2036.0 14506
1809.0 2316.0 1984.0 16519
1809.0 2407.0 2043.0 17690
1809.0 2496.0 1925.0 15177
1809.0 2734.0 1932.0 18867
1809.0 2950.0 2012.0 16787
1810.0 1828.0 2059.0 24575
1810.0 1892.0 2043.0 16500
1810.0 1945.0 2044.0 16453
1810.0 2068.0 2003.0 17315
1810.0 2185.0 1960.0 17500
1810.0 2494.0 1977.0 18385
1810.0 2568.0 1932.0 13222
1810.0 2620.0 677.0 16453
1810.0 2666.0 954.0 15817
1811.0 1951.0 2067.0 13511
1811.0 2264.0 1969.0 16024
1811.0 2398.0 2001.0 17460
1811.0 2402.0 1973.0 15002
1811.0 2792.0 1886.0 12903
1811.0 3386.0 3249.0 11354
1812.0 1846.0 2057.0 18830
1812.0 2454.0 1974.0 15085
1812.0 2829.0 1926.0 14396
1812.0 2872.0 1936.0 16699
1812.0 3057.0 2438.0 16844
1813.0 2019.0 1984.0 14864
1813.0 2746.0 764.0 16453
1813.0 3702.0 3817.0 18645
1814.0 2002.0 1978.0 17269
1814.0 2039.0 1993.0 16241
1814.0 2068.0 2046.0 14342
1814.0 2185.0 1999.0 18400
1814.0 2288.0 2010.0 15041
1814.0 2492.0 1938.0 14619
1814.0 2926.0 1918.0 16453
1814.0 3018.0 1600.0 15718
1815.0 1877.0 2042.0 14218
1815.0 2315.0 1994.0 13951
1815.0 2332.0 2002.0 18111
1815.0 2368.0 2019.0 16420
1816.0 2014.0 2039.0 19217
1816.0 2267.0 2015.0 15167
1816.0 2635.0 798.0 15474
1816.0 2974.0 1951.0 22747
1817.0 1793.0 2077.0 17441
1817.0 1845.0 2091.0 21950
1817.0 1919.0 2062.0 5986
1817.0 2071.0 2048.0 21627
1817.0 2133.0 2040.0 15119
1817.0 2356.0 2002.0 15745
1817.0 2914.0 1957.0 15150
1818.0 1841.0 2071.0 26583
1818.0 1949.0 1990.0 19092
1818.0 2131.0 1979.0 18541
1818.0 2131.0 2036.0 17942
1818.0 2236.0 2011.0 17362
1818.0 2646.0 761.0 14531
1818.0 2833.0 833.0 16912
1818.0 2980.0 1668.0 16495
1818.0 3100.0 1957.0 18974
1819.0 1903.0 2019.0 20985
1819.0 2031.0 2030.0 15574
1819.0 2203.0 1979.0 16939
1819.0 2209.0 2029.0 14971
1819.0 2393.0 2023.0 16509
1819.0 2405.0 2025.0 16527
1819.0 2432.0 1993.0 13812
1819.0 2439.0 1972.0 20307
1819.0 2675.0 1984.0 15549
1819.0 2718.0 1984.0 15449
1819.0 2752.0 1991.0 17398
1819.0 2869.0 1715.0 15858
1820.0 1872.0 2057.0 16142
1820.0 1962.0 1975.0 9787
1820.0 2223.0 1979.0 14500
1820.0 2375.0 1993.0 16044
1820.0 2376.0 2012.0 16630
1820.0 2394.0 2026.0 15386
1820.0 2552.0 1945.0 16790
1820.0 2619.0 668.0 16453
1821.0 2149.0 1959.0 16766
1821.0 2282.0 1988.0 21438
1821.0 2427.0 2029.0 16675
1821.0 2558.0 2003.0 16910
1821.0 2974.0 2174.0 15720
1822.0 1891.0 2013.0 15094
1822.0 1923.0 2035.0 19329
1822.0 1968.0 1995.0 18256
1822.0 2106.0 2040.0 17286
1822.0 2257.0 1993.0 16603
1822.0 2265.0 1999.0 15393
1822.0 2468.0 2031.0 18519
1823.0 1777.0 2081.0 14868
1823.0 1859.0 2074.0 21080
1823.0 1879.0 2066.0 16665
1823.0 1949.0 2036.0 19573
1823.0 2214.0 2020.0 15316
1823.0 2263.0 1999.0 15694
1823.0 2399.0 2002.0 15458
1823.0 2413.0 2005.0 16293
1823.0 2596.0 1942.0 17060
1824.0 1776.0 2081.0 12765
1824.0 1860.0 2097.0 18288
1824.0 1898.0 1990.0 25083
1824.0 2043.0 1992.0 13846
1824.0 2111.0 1965.0 16578
1824.0 2172.0 1973.0 13836
1824.0 2514.0 1949.0 15655
1824.0 2641.0 1998.0 16124
1825.0 1881.0 2070.0 16001
1825.0 1942.0 1980.0 15657
1825.0 2025.0 2015.0 16379
1825.0 2211.0 1987.0 16105
1825.0 2685.0 1003.0 15096
1825.0 2800.0 1953.0 20161
1826.0 1877.0 2091.0 15842
1826.0 2050.0 2020.0 20082
1826.0 2170.0 2031.0 15792
1826.0 2841.0 1957.0 13000
1827.0 2017.0 1986.0 13528
1827.0 2098.0 1988.0 12076
1827.0 2163.0 1978.0 10649
1827.0 2208.0 2011.0 14985
1827.0 2496.0 2024.0 16457
1827.0 2566.0 1991.0 16671
1827.0 2651.0 1931.0 16885
1828.0 2122.0 1997.0 21640
1828.0 2129.0 1965.0 16966
1828.0 2456.0 1961.0 15587
1828.0 2457.0 1965.0 20596
1828.0 2493.0 1962.0 16555
1828.0 2536.0 1941.0 15129
1829.0 2771.0 1935.0 19408
1829.0 2791.0 1975.0 14792
1829.0 2851.0 1573.0 17554
1829.0 2867.0 1919.0 16723
1829.0 2891.0 1711.0 16103
1830.0 1943.0 2023.0 17379
1830.0 2130.0 1967.0 16861
1830.0 2447.0 2010.0 15382
1830.0 2449.0 2010.0 15563
1830.0 2600.0 2001.0 17417
1830.0 2684.0 1951.0 17753
1831.0 1988.0 1983.0 20948
1831.0 2065.0 2022.0 16020
1831.0 2069.0 2025.0 15390
1831.0 2473.0 1937.0 16382
1831.0 2610.0 1962.0 15200
1832.0 1802.0 2076.0 16214
1832.0 1931.0 2014.0 16369
1832.0 1948.0 2000.0 14306
1832.0 2017.0 1998.0 15920
1832.0 2493.0 2019.0 17337
1832.0 2530.0 2006.0 16119
1832.0 2795.0 1913.0 16523
1832.0 2820.0 1902.0 16057
1833.0 2523.0 1960.0 17016
1833.0 2885.0 1589.0 19475
1834.0 1985.0 2019.0 15660
1834.0 2019.0 1993.0 15542
1834.0 2570.0 1948.0 17850
1834.0 2892.0 1938.0 18781
1835.0 2453.0 1978.0 17329
1835.0 2474.0 2001.0 15512
1835.0 2540.0 1934.0 13604
1836.0 2073.0 2005.0 22113
1836.0 2644.0 1966.0 17269
1836.0 2768.0 1940.0 16263
1837.0 1956.0 1997.0 15936
1837.0 2507.0 1921.0 12948
1837.0 2732.0 1954.0 15808
1837.0 2844.0 1936.0 17727
1838.0 1923.0 1989.0 22020
1838.0 2494.0 1924.0 15930
1838.0 2870.0 1952.0 18689
1839.0 1952.0 1989.0 16366
1839.0 2133.0 1972.0 13445
1839.0 2529.0 1914.0 18728
1840.0 2131.0 1947.0 10629
1840.0 2713.0 1935.0 17697
1841.0 1969.0 1979.0 18178
1841.0 2475.0 1974.0 16365
1841.0 2503.0 1997.0 15931
1841.0 2559.0 1981.0 16752
1841.0 2634.0 800.0 14469
1842.0 2083.0 1967.0 13083
1842.0 2173.0 1953.0 17733
1842.0 3155.0 2891.0 16068
1843.0 1965.0 2051.0 16453
1843.0 2068.0 1987.0 21595
1843.0 2085.0 1958.0 16688
1843.0 2730.0 1911.0 17406
1844.0 2106.0 1954.0 18502
1844.0 2111.0 2025.0 17341
1844.0 2456.0 1937.0 16366
1844.0 2772.0 1905.0 14367
1844.0 2912.0 1906.0 16453
1845.0 2111.0 1980.0 9447
1845.0 2554.0 1913.0 12498
1845.0 2605.0 1929.0 17108
1845.0 2816.0 1938.0 16877
1846.0 2093.0 2018.0 15117
1846.0 2134.0 2020.0 18303
1846.0 2482.0 1967.0 15082
1846.0 2626.0 1957.0 16388
1846.0 2858.0 1685.0 15248
1847.0 2147.0 1946.0 25318
1847.0 2577.0 1916.0 17350
1847.0 2669.0 1963.0 17340
1848.0 2103.0 1994.0 12033
1848.0 2108.0 1973.0 15248
1848.0 2458.0 1951.0 15175
1848.0 2492.0 1945.0 15169
1849.0 2159.0 1964.0 17030
1850.0 2178.0 1975.0 14666
1850.0 2454.0 1959.0 17701
1850.0 2693.0 894.0 17006
1850.0 2712.0 1902.0 16738
1851.0 2520.0 1937.0 15588
1851.0 2573.0 1959.0 17223
1852.0 2194.0 1954.0 14988
1852.0 2473.0 1933.0 15674
1853.0 2180.0 1981.0 16791
1853.0 2498.0 1956.0 14468
1853.0 2666.0 1959.0 16069
1853.0 2724.0 1960.0 15969
1855.0 2132.0 1986.0 15416
1855.0 2656.0 1908.0 15851
1855.0 2939.0 1900.0 17000
1856.0 2134.0 1973.0 15420
1856.0 2183.0 1952.0 19415
1856.0 2562.0 1941.0 18782
1856.0 2687.0 1919.0 15407
1857.0 2161.0 1958.0 16676
1857.0 2169.0 2012.0 16012
1857.0 2531.0 1978.0 14963
1857.0 2533.0 1957.0 15631
1858.0 2171.0 2010.0 18697
1858.0 2630.0 1909.0 14927
1858.0 2635.0 1956.0 15246
1858.0 2888.0 1894.0 14513
1859.0 2135.0 2014.0 13938
1859.0 2158.0 1981.0 17944
1859.0 2187.0 1990.0 17704
1859.0 2920.0 1938.0 16453
1860.0 2134.0 1990.0 17214
1860.0 2431.0 1963.0 13207
1860.0 2577.0 1955.0 12302
1860.0 2638.0 691.0 16453
1860.0 2873.0 1955.0 16882
1861.0 2131.0 1988.0 14218
1861.0 2582.0 1956.0 15850
1861.0 2770.0 1956.0 12855
1862.0 2542.0 1947.0 15945
1862.0 2819.0 1950.0 18284
1862.0 2846.0 1949.0 18490
1862.0 3071.0 1870.0 13095
1863.0 2174.0 1977.0 15498
1863.0 2500.0 1975.0 14489
1863.0 2579.0 1906.0 13125
1863.0 2892.0 1960.0 12121
1863.0 2989.0 1709.0 16720
1864.0 2383.0 1956.0 18244
1864.0 2536.0 1921.0 15544
1864.0 2768.0 1908.0 14351
1865.0 2346.0 1957.0 17991
1865.0 2428.0 1941.0 22361
1865.0 2797.0 1951.0 17090
1866.0 2130.0 2006.0 14273
1866.0 2205.0 1973.0 17963
1866.0 2404.0 1949.0 15215
1866.0 2433.0 1941.0 19631
1866.0 2651.0 641.0 16453
1866.0 2676.0 1947.0 15436
1866.0 2870.0 1936.0 16441
1867.0 2204.0 1951.0 21186
1867.0 2243.0 1973.0 16488
1867.0 2365.0 1956.0 14371
1867.0 2450.0 1978.0 14229
1867.0 2762.0 1549.0 15428
1867.0 2765.0 1955.0 16981
1868.0 2278.0 1973.0 16158
1868.0 2328.0 1964.0 15569
1868.0 2400.0 1977.0 17030
1868.0 2444.0 1965.0 16338
1868.0 2713.0 1952.0 14852
1868.0 2792.0 1925.0 15002
1868.0 3016.0 1969.0 15570
1869.0 2490.0 1969.0 14443
1869.0 2543.0 1919.0 15497
1869.0 2565.0 1913.0 15393
1869.0 2605.0 1915.0 18684
1869.0 2625.0 1942.0 16147
1869.0 2714.0 1903.0 15577
1869.0 2717.0 1947.0 13347
1869.0 2786.0 1958.0 15464
1869.0 2887.0 1928.0 15940
1870.0 2206.0 1981.0 16072
1870.0 2211.0 1957.0 17463
1870.0 2406.0 1969.0 15400
1870.0 2570.0 1913.0 12518
1870.0 2620.0 1958.0 12948
1870.0 2623.0 1957.0 13021
1870.0 2640.0 1906.0 22850
1870.0 2655.0 728.0 16453
1870.0 2723.0 1948.0 15804
1870.0 2941.0 1893.0 16442
1871.0 2316.0 1980.0 16065
1871.0 2491.0 1973.0 14057
1871.0 2546.0 1926.0 15149
1871.0 2595.0 1913.0 13084
1871.0 2688.0 1904.0 17173
1871.0 2717.0 1902.0 21329
1871.0 2781.0 1953.0 15222
1871.0 2805.0 1936.0 18501
1872.0 2179.0 1956.0 25486
1872.0 2210.0 1993.0 19272
1872.0 2297.0 1981.0 13864
1872.0 2315.0 1968.0 19821
1872.0 2392.0 1979.0 15400
1872.0 2446.0 1974.0 14764
1872.0 2619.0 1916.0 16693
1872.0 2664.0 1915.0 16059
1872.0 2674.0 1942.0 16387
1872.0 2779.0 1922.0 12689
1872.0 2871.0 1924.0 17805
1872.0 2925.0 1939.0 12897
1873.0 2339.0 1978.0 13877
1873.0 2364.0 1979.0 16460
1873.0 2423.0 1976.0 14152
1873.0 2462.0 1969.0 15087
1873.0 2584.0 1934.0 14740
1873.0 2631.0 1954.0 13060
1874.0 2275.0 1982.0 15451
1874.0 2327.0 1978.0 16975
1874.0 2337.0 1979.0 14342
1874.0 2407.0 1974.0 15492
1874.0 2447.0 1971.0 15116
1874.0 2473.0 1963.0 16072
1874.0 2646.0 1934.0 15075
1875.0 2157.0 1998.0 18708
1875.0 2230.0 1976.0 17203
1875.0 2293.0 1968.0 13139
1875.0 2310.0 1974.0 16277
1875.0 2358.0 1973.0 14056
1875.0 2433.0 1951.0 17193
1876.0 2173.0 1979.0 17658
1876.0 2258.0 1975.0 17611
1876.0 2746.0 1909.0 15244
1877.0 2182.0 1977.0 16945
1877.0 2390.0 1972.0 16936
1877.0 2906.0 1911.0 24095
1878.0 2205.0 1999.0 22410
1878.0 2690.0 1919.0 15379
1878.0 3041.0 1947.0 16100
1879.0 2679.0 1926.0 14605
1880.0 2373.0 1971.0 15515
1880.0 2397.0 1957.0 12843
1880.0 2812.0 989.0 16318
1880.0 3058.0 1733.0 17569
1881.0 2194.0 1957.0 20792
1881.0 2214.0 1997.0 17816
1881.0 2321.0 1964.0 18840
1881.0 2423.0 1962.0 14371
1882.0 2210.0 1958.0 16549
1882.0 2827.0 1946.0 11517
1884.0 2307.0 1966.0 21273
1885.0 2187.0 1996.0 19064
1885.0 2295.0 1974.0 17928
1885.0 2336.0 1969.0 14939
1885.0 2350.0 1965.0 14343
1885.0 2438.0 1964.0 16399
1885.0 2916.0 1895.0 17781
1885.0 2988.0 1380.0 14432
1885.0 3107.0 2641.0 15843
1886.0 2168.0 1972.0 18917
1886.0 2318.0 1971.0 13885
1886.0 2358.0 1968.0 14263
1886.0 2438.0 1962.0 13735
1886.0 3168.0 3008.0 15710
1887.0 2397.0 1961.0 17201
1888.0 2209.0 1976.0 20186
1889.0 2230.0 1985.0 20337
1889.0 2418.0 1965.0 16161
1890.0 2378.0 1967.0 14765
1891.0 2225.0 1962.0 17296
1893.0 2247.0 1968.0 12772
1895.0 2185.0 1968.0 18335
1895.0 2185.0 1980.0 16156
1896.0 2204.0 1981.0 14954
1896.0 3194.0 2870.0 12583
1897.0 2204.0 1976.0 15393
1898.0 2814.0 1499.0 16337
1900.0 2907.0 1862.0 17634
1907.0 2709.0 769.0 21218
1907.0 3003.0 1916.0 12582
1909.0 2759.0 1301.0 14756
1910.0 2623.0 744.0 15258
1910.0 2821.0 1751.0 15608
1910.0 2923.0 1841.0 17391
1911.0 2820.0 837.0 15829
1917.0 2628.0 659.0 16453
1922.0 3143.0 2915.0 15467
1924.0 2787.0 1067.0 17598
1926.0 2707.0 1026.0 16305
1928.0 3057.0 1836.0 15805
1931.0 3157.0 2865.0 16795
1932.0 2648.0 708.0 14717
1932.0 2732.0 1200.0 14413
1932.0 2910.0 1382.0 14017
1941.0 2951.0 1609.0 16052
1943.0 2742.0 933.0 13151
1944.0 2615.0 685.0 20162
1951.0 2860.0 1914.0 13584
1951.0 3148.0 2166.0 16376
1952.0 2862.0 1712.0 15553
1952.0 3207.0 3078.0 16352
1959.0 2643.0 760.0 15616
1959.0 2820.0 1058.0 14743
1963.0 3004.0 2287.0 14071
1965.0 2668.0 857.0 12624
1970.0 2613.0 741.0 18937
1972.0 3183.0 2961.0 16159
1976.0 3133.0 2873.0 14697
1977.0 3135.0 2742.0 15889
1977.0 3167.0 2959.0 15526
1978.0 3062.0 2598.0 15709
1979.0 3142.0 2888.0 15916
1980.0 2843.0 1559.0 15088
1982.0 2625.0 678.0 15531
1983.0 2631.0 764.0 15438
1984.0 2942.0 2043.0 17189
1989.0 3016.0 1970.0 16079
1990.0 3059.0 2635.0 16162
1991.0 2610.0 712.0 17792
1991.0 2625.0 695.0 14167
1994.0 2643.0 858.0 13824
1994.0 2934.0 2021.0 13585
1995.0 2795.0 1036.0 14480
2000.0 2915.0 1933.0 13585
2004.0 2891.0 1839.0 15392
2006.0 2777.0 1345.0 17102
2008.0 2803.0 1519.0 15733
2013.0 3128.0 2822.0 14521
2017.0 2817.0 1891.0 16494
2021.0 3156.0 2880.0 13841
2032.0 3023.0 1867.0 14067
2033.0 2720.0 1064.0 15456
2038.0 3147.0 2924.0 13452
2039.0 3327.0 3214.0 21870
2041.0 2873.0 1747.0 17727
2041.0 2876.0 1094.0 14514
2046.0 2677.0 981.0 15686
2052.0 2601.0 644.0 16476
2052.0 2610.0 702.0 16406
2055.0 3186.0 2878.0 16501
2058.0 2990.0 1980.0 16801
2059.0 3293.0 2820.0 17197
2063.0 3070.0 1985.0 16278
2070.0 3133.0 2885.0 15148
2071.0 3111.0 2697.0 16239
2073.0 3294.0 2258.0 14449
2076.0 2916.0 1882.0 17078
2080.0 3166.0 2932.0 14566
2081.0 2934.0 1628.0 14739
2083.0 2634.0 732.0 16293
2085.0 3025.0 1919.0 14038
2091.0 2927.0 2005.0 16066
2092.0 2660.0 838.0 16106
2092.0 2828.0 1586.0 16606
2093.0 2723.0 893.0 10997
2095.0 2726.0 1038.0 16079
2095.0 3140.0 2867.0 13773
2096.0 2734.0 1183.0 11971
2103.0 2629.0 693.0 16517
2106.0 2902.0 1895.0 12902
2116.0 2971.0 1745.0 12510
2119.0 2593.0 655.0 18303
2119.0 3137.0 2876.0 13090
2124.0 2585.0 551.0 17648
2125.0 3423.0 2411.0 16183
2131.0 2986.0 2024.0 16537
2133.0 2896.0 1795.0 16599
2135.0 2588.0 605.0 16181
2135.0 2914.0 1264.0 16299
2141.0 2641.0 587.0 19371
2142.0 2804.0 1843.0 23985
2144.0 3366.0 3152.0 20648
2151.0 2592.0 701.0 20340
2151.0 2961.0 1520.0 15657
2151.0 3090.0 2627.0 16169
2152.0 2940.0 1958.0 17101
2161.0 2954.0 1498.0 14413
2163.0 2796.0 1472.0 16200
2167.0 3042.0 2033.0 16894
2168.0 2574.0 520.0 16579
2169.0 2786.0 1316.0 13912
2169.0 3017.0 2350.0 12432
2175.0 3136.0 2879.0 13124
2176.0 2703.0 898.0 15258
2177.0 2629.0 701.0 16082
2178.0 3131.0 2581.0 15577
2178.0 3140.0 2736.0 15584
2181.0 2686.0 1077.0 15585
2182.0 2643.0 817.0 16959
2183.0 2680.0 1029.0 16612
2183.0 3208.0 2891.0 13843
2184.0 2594.0 714.0 17964
2186.0 2589.0 622.0 16355
2186.0 2811.0 1524.0 13624
2186.0 2846.0 1669.0 15538
2187.0 2644.0 887.0 14902
2188.0 2774.0 1379.0 14511
2189.0 2869.0 1710.0 14692
2190.0 2564.0 1787.0 14220
2190.0 3204.0 2848.0 15943
2191.0 2548.0 1798.0 13005
2191.0 2567.0 1806.0 13562
2191.0 2656.0 808.0 18038
2191.0 2863.0 1480.0 17372
2191.0 3105.0 2609.0 15363
2192.0 2496.0 1833.0 13297
2192.0 2566.0 1807.0 13211
2192.0 2990.0 2252.0 15265
2193.0 2474.0 1840.0 11985
2193.0 2495.0 1832.0 17671
2193.0 2697.0 971.0 14575
2194.0 2644.0 790.0 14604
2194.0 3313.0 2850.0 16420
2195.0 2495.0 1832.0 16453
2195.0 2610.0 697.0 15831
2196.0 2461.0 1841.0 16486
2196.0 2479.0 1840.0 16775
2196.0 2529.0 1785.0 16926
2196.0 2962.0 2101.0 16576
2197.0 2532.0 1809.0 20057
2198.0 2513.0 1810.0 16636
2198.0 2526.0 1826.0 16005
2198.0 3178.0 2889.0 15270
2199.0 2434.0 1836.0 15662
2199.0 2547.0 1779.0 16453
2199.0 2860.0 1731.0 16331
2200.0 2310.0 1835.0 14047
2200.0 2497.0 1817.0 16453
2200.0 2511.0 1792.0 18643
2201.0 2475.0 1816.0 16453
2201.0 2513.0 1837.0 13302
2201.0 2581.0 617.0 16997
2202.0 2327.0 1850.0 14814
2202.0 2406.0 1839.0 13360
2202.0 2521.0 1783.0 21042
2202.0 2542.0 1807.0 16041
2202.0 2563.0 1792.0 16305
2202.0 2799.0 1568.0 15512
2202.0 2855.0 1700.0 16217
2202.0 2868.0 1556.0 16443
2202.0 2945.0 1877.0 16813
2203.0 2294.0 1839.0 14862
2203.0 2348.0 1854.0 17645
2203.0 2493.0 1797.0 18627
2203.0 2573.0 1809.0 16453
2203.0 2621.0 1803.0 16101
2204.0 2306.0 1843.0 15663
2204.0 2388.0 1840.0 21408
2204.0 2489.0 1814.0 15645
2204.0 2894.0 1686.0 14660
2205.0 2289.0 1841.0 15135
2205.0 2323.0 1851.0 15628
2205.0 2523.0 1828.0 16453
2206.0 2342.0 1853.0 16453
2206.0 2463.0 1837.0 16887
2206.0 2479.0 1844.0 17131
2206.0 2486.0 1796.0 18033
2206.0 2497.0 1803.0 16237
2206.0 2624.0 1787.0 17952
2207.0 2469.0 1815.0 16453
2207.0 2497.0 1836.0 17235
2207.0 2545.0 1775.0 31219
2207.0 2615.0 1776.0 19898
2207.0 2929.0 1930.0 16167
2208.0 2430.0 1842.0 16453
2208.0 3073.0 2510.0 16595
2209.0 2272.0 1848.0 14454
2209.0 2293.0 1827.0 16547
2209.0 2358.0 1859.0 19533
2209.0 2409.0 1851.0 15978
2209.0 2427.0 1841.0 16453
2210.0 2322.0 1833.0 15407
2210.0 2446.0 1814.0 12999
2210.0 2595.0 1799.0 16453
2211.0 2427.0 1820.0 14850
2211.0 2481.0 1826.0 16541
2211.0 2494.0 1836.0 12477
2212.0 2218.0 1841.0 16453
2212.0 2243.0 1835.0 18255
2212.0 2251.0 1844.0 14240
2212.0 2282.0 1829.0 14346
2212.0 2410.0 1829.0 20931
2212.0 2430.0 1819.0 20852
2212.0 2591.0 1774.0 16453
2213.0 2373.0 1852.0 16453
2213.0 2392.0 1823.0 24197
2213.0 3119.0 2074.0 16204
2214.0 2292.0 1847.0 15572
2214.0 2754.0 1738.0 17589
2215.0 2233.0 1848.0 16453
2215.0 2261.0 1833.0 14504
2215.0 2308.0 1859.0 16453
2215.0 2351.0 1830.0 19343
2215.0 2375.0 1829.0 20173
2215.0 2390.0 1853.0 16453
2215.0 2444.0 1832.0 16453
2216.0 2291.0 1856.0 15055
2216.0 2358.0 1833.0 18326
2217.0 2227.0 1830.0 22466
2217.0 2255.0 1854.0 11423
2217.0 2336.0 1835.0 21932
2217.0 2336.0 1861.0 9471
2217.0 2357.0 1853.0 16453
2218.0 2247.0 1850.0 13583
2218.0 2263.0 1854.0 15064
2218.0 2386.0 1856.0 15209
2219.0 2329.0 1837.0 16351
2219.0 2340.0 1858.0 16156
2220.0 2207.0 1844.0 12435
2220.0 2303.0 1855.0 13672
2221.0 2226.0 1823.0 21085
2221.0 2253.0 1829.0 12898
2221.0 2281.0 1829.0 15096
2221.0 2299.0 1856.0 11034
2221.0 2872.0 1783.0 16453
2222.0 2208.0 1851.0 18449
2222.0 2337.0 1846.0 16453
2222.0 2731.0 1048.0 14952
2223.0 2209.0 1818.0 17622
2224.0 2205.0 1817.0 14558
2224.0 2880.0 1715.0 15614
2224.0 2958.0 1541.0 17794
2225.0 2174.0 1830.0 17742
2225.0 2902.0 1847.0 19407
2226.0 2175.0 1852.0 7863
2226.0 2192.0 1833.0 16453
2226.0 2254.0 1826.0 20277
2226.0 3132.0 2764.0 14911
2227.0 2176.0 1820.0 17635
2228.0 2174.0 1851.0 10434
2228.0 2229.0 1839.0 13068
2228.0 2567.0 1835.0 12576
2228.0 2840.0 1898.0 16453
2229.0 2596.0 1828.0 15893
2230.0 2126.0 1857.0 15348
2230.0 2128.0 1855.0 12082
2230.0 2159.0 1804.0 25674
2230.0 2806.0 1861.0 16453
2230.0 3089.0 1915.0 16890
2231.0 2572.0 1835.0 15736
2231.0 2693.0 1788.0 15984
2231.0 2703.0 1767.0 16869
2232.0 2040.0 1832.0 11278
2232.0 2132.0 1834.0 15682
2232.0 2150.0 1854.0 9424
2232.0 2154.0 1829.0 15708
2232.0 2546.0 1759.0 18210
2232.0 2704.0 1772.0 15817
2233.0 2099.0 1832.0 18826
2233.0 2684.0 1737.0 16388
2234.0 2062.0 1831.0 15838
2234.0 2109.0 1851.0 16453
2234.0 2466.0 1782.0 17250
2234.0 2660.0 1751.0 16391
2234.0 2662.0 1725.0 15998
2234.0 2672.0 1781.0 16489
2234.0 2847.0 1891.0 16453
2234.0 3598.0 3779.0 17118
2235.0 2046.0 1840.0 15466
2235.0 2080.0 1826.0 16038
2235.0 2090.0 1857.0 17264
2235.0 2126.0 1836.0 15156
2235.0 2569.0 1810.0 16453
2235.0 2619.0 1777.0 16453
2235.0 2623.0 1829.0 13695
2235.0 2712.0 1812.0 16453
2235.0 2761.0 1890.0 15436
2235.0 2789.0 1707.0 16453
2236.0 2108.0 1815.0 12778
2236.0 2126.0 1811.0 18530
2236.0 2461.0 1779.0 16231
2236.0 2499.0 1834.0 14086
2236.0 2543.0 1841.0 10771
2236.0 2586.0 1798.0 16205
2236.0 2588.0 1763.0 17514
2236.0 2611.0 1742.0 16453
2236.0 2620.0 1829.0 17038
2236.0 2635.0 1799.0 18939
2236.0 2637.0 1761.0 16035
2236.0 2638.0 1728.0 16818
2236.0 2668.0 1816.0 15868
2236.0 2736.0 1220.0 16259
2236.0 2745.0 1836.0 14015
2236.0 2751.0 1713.0 14536
2236.0 2800.0 1738.0 16453
2236.0 2858.0 1890.0 16453
2236.0 3102.0 2702.0 17307
2237.0 2079.0 1860.0 17132
2237.0 2173.0 1812.0 15272
2237.0 2435.0 1788.0 16031
2237.0 2511.0 1834.0 17674
2237.0 2607.0 1837.0 14924
2237.0 2622.0 1777.0 16453
2237.0 2627.0 1740.0 16226
2237.0 2634.0 1741.0 15477
2237.0 2643.0 1749.0 15756
2237.0 2658.0 1797.0 17180
2237.0 2659.0 1718.0 17965
2237.0 2672.0 1765.0 16321
2237.0 2694.0 1713.0 16453
2237.0 2784.0 1849.0 16453
2237.0 2860.0 1630.0 17946
2238.0 2054.0 1860.0 11544
2238.0 2548.0 1842.0 16713
2238.0 2596.0 1752.0 15274
2238.0 2604.0 1802.0 16979
2238.0 2634.0 1810.0 17948
2238.0 2713.0 1709.0 16453
2238.0 2797.0 1896.0 16453
2238.0 2820.0 1733.0 16453
2239.0 1931.0 1860.0 18204
2239.0 2042.0 1855.0 16453
2239.0 2122.0 1804.0 10222
2239.0 2152.0 1809.0 16453
2239.0 2566.0 1817.0 16453
2239.0 2599.0 1736.0 16453
2239.0 2633.0 1718.0 17759
2239.0 2676.0 1830.0 16453
2239.0 2698.0 1698.0 16453
2239.0 2716.0 1838.0 16453
2239.0 2756.0 1712.0 16453
2239.0 2917.0 1400.0 16303
2240.0 2015.0 1849.0 17619
2240.0 2026.0 1864.0 16715
2240.0 2440.0 1853.0 13707
2240.0 2466.0 1849.0 13612
2240.0 2530.0 1767.0 16453
2240.0 2574.0 1739.0 16585
2240.0 2720.0 1745.0 16453
2240.0 2761.0 1748.0 16453
2240.0 2797.0 1889.0 16453
2240.0 2829.0 1714.0 16453
2240.0 2868.0 1890.0 16453
2240.0 2956.0 1916.0 16531
2241.0 1875.0 1853.0 15926
2241.0 1885.0 1861.0 16508
2241.0 2480.0 1839.0 13062
2241.0 2496.0 1794.0 16453
2241.0 2564.0 1743.0 16453
2241.0 2564.0 1809.0 16327
2241.0 2582.0 1739.0 16544
2241.0 2845.0 1934.0 18212
2241.0 2910.0 1885.0 17181
2241.0 3127.0 2822.0 18846
2242.0 1905.0 1858.0 17160
2242.0 1928.0 1858.0 18695
2242.0 2075.0 1808.0 15650
2242.0 2404.0 1812.0 16453
2242.0 2495.0 1742.0 17779
2242.0 2578.0 1786.0 16525
2242.0 2643.0 1714.0 16187
2242.0 2676.0 1711.0 16744
2242.0 2770.0 1698.0 16453
2243.0 1849.0 1855.0 14998
2243.0 1971.0 1870.0 13225
2243.0 2086.0 1816.0 7722
2243.0 2128.0 1817.0 16453
2243.0 2597.0 1720.0 18508
2243.0 2713.0 1865.0 16176
2243.0 2729.0 1815.0 16453
2243.0 2811.0 1926.0 12983
2243.0 2896.0 1893.0 16453
2244.0 1991.0 1853.0 23719
2244.0 2000.0 1868.0 16234
2244.0 2002.0 1864.0 15603
2244.0 2385.0 1843.0 15872
2244.0 2469.0 1753.0 13550
2244.0 2552.0 1739.0 15600
2244.0 2635.0 1831.0 16453
2244.0 2637.0 1832.0 18902
2244.0 2671.0 1835.0 17933
2244.0 2732.0 1714.0 16453
2244.0 2756.0 1693.0 16453
2244.0 2852.0 1698.0 16453
2245.0 2411.0 1778.0 16146
2245.0 2444.0 1770.0 16026
2245.0 2456.0 1756.0 17940
2245.0 2735.0 1893.0 17170
2245.0 2745.0 1699.0 16453
2245.0 2754.0 1888.0 16046
2245.0 2763.0 1909.0 12521
2245.0 2880.0 1929.0 17497
2246.0 1952.0 1859.0 16453
2246.0 2084.0 1838.0 16453
2246.0 2377.0 1779.0 23034
2246.0 2407.0 1781.0 15394
2246.0 2407.0 1858.0 14772
2246.0 2486.0 1780.0 16453
2246.0 2690.0 845.0 15480
2246.0 2692.0 1722.0 16453
2246.0 2748.0 1840.0 14633
2246.0 2830.0 1695.0 8558
2246.0 2915.0 1937.0 17129
2246.0 3049.0 1946.0 14619
2247.0 1846.0 1853.0 14954
2247.0 2185.0 1804.0 16453
2247.0 2379.0 1779.0 25685
2247.0 2731.0 1897.0 16398
2247.0 2816.0 1923.0 18977
2247.0 2877.0 1924.0 13339
2247.0 2905.0 1912.0 12935
2247.0 2959.0 1917.0 15031
2248.0 1843.0 1840.0 17467
2248.0 1844.0 1859.0 15049
2248.0 2392.0 1781.0 17374
2248.0 2404.0 1849.0 12947
2248.0 2428.0 1777.0 16094
2248.0 2494.0 1847.0 19897
2248.0 2529.0 1739.0 15673
2248.0 2557.0 1774.0 16453
2248.0 2719.0 1888.0 15146
2248.0 2725.0 1695.0 16453
2248.0 2804.0 1895.0 16453
2248.0 3811.0 3812.0 18503
2249.0 2334.0 1829.0 18308
2249.0 2416.0 1765.0 17366
2249.0 2612.0 1716.0 20069
2250.0 1702.0 1816.0 14460
2250.0 1911.0 1880.0 16453
2250.0 2060.0 1841.0 16453
2250.0 2343.0 1805.0 16405
2250.0 2407.0 1818.0 16453
2250.0 2567.0 1721.0 20469
2250.0 2625.0 1729.0 16453
2250.0 2695.0 1698.0 16762
2250.0 2784.0 1900.0 16453
2250.0 3078.0 1859.0 14405
2251.0 1654.0 1829.0 16159
2251.0 1817.0 1839.0 16704
2251.0 1905.0 1847.0 16453
2251.0 2120.0 1817.0 20621
2251.0 2717.0 1809.0 16453
2252.0 1704.0 1817.0 16020
2252.0 1864.0 1870.0 13214
2252.0 2179.0 1827.0 16453
2252.0 2199.0 1822.0 16689
2252.0 2404.0 1758.0 10438
2252.0 2624.0 1712.0 15082
2252.0 2698.0 1713.0 16453
2253.0 1819.0 1854.0 16421
2253.0 2374.0 1809.0 16453
2253.0 2450.0 1844.0 19849
2253.0 2494.0 1808.0 16453
2253.0 2582.0 1726.0 19101
2253.0 2657.0 1705.0 22038
2253.0 2690.0 1876.0 14825
2253.0 2700.0 1768.0 16453
2253.0 2714.0 1887.0 16858
2253.0 3031.0 1456.0 15102
2253.0 3326.0 3227.0 17172
2254.0 2088.0 1807.0 18254
2254.0 2219.0 1816.0 16299
2254.0 2292.0 1834.0 16082
2254.0 2302.0 1817.0 16453
2254.0 2379.0 1854.0 18438
2254.0 2541.0 1728.0 14638
2254.0 2628.0 913.0 15915
2254.0 2816.0 1704.0 16453
2254.0 2878.0 1814.0 16453
2255.0 1794.0 1831.0 12725
2255.0 1886.0 1872.0 14592
2255.0 2039.0 1846.0 16453
2255.0 2111.0 1832.0 21051
2255.0 2144.0 1832.0 14792
2255.0 2146.0 1795.0 16047
2255.0 2300.0 1794.0 16446
2255.0 2354.0 1847.0 9838
2255.0 2446.0 1809.0 16453
2255.0 2672.0 1863.0 16864
2255.0 2697.0 1893.0 13499
2256.0 1667.0 1813.0 15210
2256.0 1815.0 1854.0 16538
2256.0 1818.0 1834.0 13012
2256.0 1873.0 1828.0 19459
2256.0 2107.0 1809.0 14876
2256.0 2169.0 1814.0 16453
2256.0 2173.0 1841.0 16453
2256.0 2204.0 1795.0 16126
2256.0 2248.0 1811.0 16858
2256.0 2476.0 1734.0 21081
2256.0 2507.0 1740.0 14954
2256.0 2797.0 1698.0 16453
2257.0 2112.0 1840.0 16778
2257.0 2454.0 1744.0 18909
2257.0 2604.0 1712.0 16453
2257.0 2620.0 844.0 16665
2257.0 2713.0 1709.0 16453
2257.0 2845.0 1920.0 16453
2258.0 1643.0 1819.0 16345
2258.0 1766.0 1833.0 13411
2258.0 1986.0 1874.0 24359
2258.0 2211.0 1790.0 18055
2258.0 2334.0 1778.0 16411
2258.0 2334.0 1801.0 16826
2258.0 2361.0 1784.0 16453
2258.0 2420.0 1878.0 13735
2258.0 2579.0 1730.0 16453
2258.0 2716.0 1916.0 5226
2258.0 2750.0 1915.0 16453
2258.0 2882.0 1817.0 16453
2259.0 1681.0 1816.0 20703
2259.0 2102.0 1809.0 17335
2259.0 2128.0 1811.0 21364
2259.0 2176.0 1792.0 17458
2259.0 2262.0 1812.0 18765
2259.0 2518.0 1732.0 15495
2259.0 2699.0 1852.0 16453
2259.0 2740.0 1707.0 16453
2259.0 2759.0 1698.0 16453
2260.0 1808.0 1829.0 10628
2260.0 1930.0 1872.0 18758
2260.0 1975.0 1852.0 18477
2260.0 2001.0 1858.0 17591
2260.0 2089.0 1767.0 12282
2260.0 2174.0 1787.0 14717
2260.0 2203.0 1788.0 17388
2260.0 2315.0 1843.0 17214
2260.0 2376.0 1765.0 14844
2260.0 2435.0 1763.0 13812
2261.0 1778.0 1843.0 15554
2261.0 1927.0 1872.0 18869
2261.0 1957.0 1876.0 14736
2261.0 2000.0 1837.0 11028
2261.0 2288.0 1789.0 14070
2261.0 2360.0 1766.0 14609
2261.0 2582.0 1840.0 16453
2261.0 2881.0 1726.0 15521
2262.0 1660.0 1802.0 16453
2262.0 1685.0 1834.0 17250
2262.0 1780.0 1826.0 17374
2262.0 1791.0 1850.0 16126
2262.0 1942.0 1852.0 17501
2262.0 2008.0 1842.0 16453
2262.0 2025.0 1869.0 17051
2262.0 2080.0 1810.0 16486
2262.0 2203.0 1839.0 16453
2262.0 2254.0 1783.0 16141
2262.0 2500.0 1742.0 15408
2262.0 2515.0 1812.0 16453
2262.0 2755.0 1707.0 16453
2262.0 2812.0 1948.0 13107
2262.0 2915.0 1759.0 17726
2263.0 1665.0 1832.0 16037
2263.0 1753.0 1830.0 16126
2263.0 1754.0 1844.0 16421
2263.0 1850.0 1858.0 13602
2263.0 1929.0 1848.0 16453
2263.0 2081.0 1847.0 17410
2263.0 2172.0 1825.0 16453
2263.0 2185.0 1850.0 16698
2263.0 2212.0 1843.0 18398
2263.0 2236.0 1832.0 15680
2263.0 2238.0 1791.0 15658
2263.0 2302.0 1790.0 19478
2263.0 2466.0 1777.0 16453
2263.0 2742.0 1932.0 5099
2263.0 2782.0 1711.0 16453
2264.0 1875.0 1858.0 14786
2264.0 1896.0 1857.0 12705
2264.0 1957.0 1877.0 23548
2264.0 1997.0 1838.0 12515
2264.0 2052.0 1805.0 21890
2264.0 2119.0 1788.0 17019
2264.0 2231.0 1792.0 13846
2264.0 2247.0 1789.0 17367
2264.0 2335.0 1846.0 20758
2264.0 2338.0 1778.0 16406
2264.0 2479.0 1759.0 13497
2264.0 2637.0 1717.0 16453
2264.0 2679.0 1711.0 16453
2264.0 2880.0 1892.0 16453
2265.0 1921.0 1855.0 21558
2265.0 2077.0 1832.0 17216
2265.0 2208.0 1846.0 15796
2265.0 2754.0 1897.0 16453
2265.0 2779.0 1386.0 15856
2265.0 2933.0 1869.0 16050
2266.0 1794.0 1851.0 11955
2266.0 2000.0 1874.0 18520
2266.0 2049.0 1854.0 21165
2266.0 2077.0 1857.0 17015
2266.0 2178.0 1791.0 14928
2266.0 2634.0 1736.0 16453
2267.0 1722.0 1810.0 20908
2267.0 1741.0 1821.0 17860
2267.0 1768.0 1820.0 15221
2267.0 1792.0 1828.0 15214
2267.0 1817.0 1854.0 15920
2267.0 1834.0 1850.0 22082
2267.0 2142.0 1764.0 18288
2267.0 2464.0 1848.0 16453
2267.0 2496.0 1738.0 16453
2267.0 2571.0 1745.0 16453
2267.0 2612.0 1839.0 16453
2267.0 2718.0 1715.0 16453
2267.0 2913.0 1946.0 14176
2267.0 2943.0 1899.0 14245
2268.0 1722.0 1829.0 16676
2268.0 1818.0 1843.0 20083
2268.0 1954.0 1851.0 17648
2268.0 2175.0 1845.0 17344
2268.0 2381.0 1874.0 14730
2268.0 2534.0 1735.0 16453
2268.0 2556.0 1727.0 12823
2268.0 2649.0 1847.0 16453
2268.0 2708.0 1902.0 17347
2268.0 2729.0 1709.0 16453
2268.0 2774.0 1925.0 17351
2269.0 1659.0 1817.0 16740
2269.0 1703.0 1832.0 26242
2269.0 1704.0 1817.0 16204
2269.0 2003.0 1879.0 21083
2269.0 2116.0 1793.0 17505
2269.0 2137.0 1858.0 16453
2269.0 2175.0 1789.0 15912
2269.0 2336.0 1856.0 16453
2269.0 2434.0 1854.0 16453
2269.0 2498.0 1843.0 16453
2269.0 2540.0 1838.0 16453
2269.0 2579.0 1713.0 16453
2269.0 2632.0 1864.0 15905
2269.0 2678.0 1815.0 16453
2269.0 2678.0 1891.0 14162
2269.0 2711.0 1870.0 16453
2269.0 2775.0 1773.0 16453
2269.0 3042.0 1808.0 15832
2270.0 2049.0 1877.0 19855
2270.0 2308.0 1770.0 19482
2270.0 2495.0 1749.0 16453
2270.0 2548.0 1793.0 16453
2270.0 2633.0 1715.0 20459
2270.0 2656.0 1772.0 16136
2270.0 2699.0 1710.0 16453
2270.0 2706.0 961.0 15678
2270.0 2769.0 1716.0 16453
2270.0 2781.0 1949.0 16317
2270.0 2842.0 1890.0 16453
2270.0 2859.0 1711.0 16453
2270.0 3071.0 2544.0 16315
2271.0 1680.0 1803.0 14731
2271.0 1695.0 1810.0 7581
2271.0 1705.0 1832.0 24617
2271.0 1766.0 1840.0 17140
2271.0 2024.0 1845.0 18858
2271.0 2049.0 1819.0 16548
2271.0 2125.0 1859.0 15014
2271.0 2198.0 1841.0 12323
2271.0 2245.0 1841.0 13964
2271.0 2250.0 1843.0 16453
2271.0 2416.0 1746.0 16046
2271.0 2580.0 1719.0 13871
2271.0 2586.0 1720.0 13259
2271.0 2606.0 1720.0 15888
2271.0 2633.0 1713.0 14684
2271.0 2653.0 1880.0 9761
2271.0 2685.0 1888.0 16453
2271.0 2736.0 1784.0 16453
2271.0 2880.0 1531.0 15614
2271.0 2883.0 1866.0 17751
2272.0 1667.0 1809.0 19609
2272.0 1686.0 1829.0 17844
2272.0 1725.0 1815.0 14792
2272.0 1739.0 1835.0 21047
2272.0 1744.0 1817.0 15604
2272.0 1849.0 1822.0 16453
2272.0 2044.0 1826.0 17747
2272.0 2044.0 1873.0 19352
2272.0 2330.0 1763.0 17051
2272.0 2386.0 1761.0 20322
2272.0 2414.0 1744.0 22397
2272.0 2417.0 1789.0 16453
2272.0 2507.0 1736.0 16453
2272.0 2592.0 1720.0 16453
2272.0 2662.0 1713.0 14786
2272.0 2696.0 1710.0 16453
2272.0 2730.0 1909.0 17080
2272.0 2773.0 1718.0 16453
2272.0 2787.0 1925.0 16453
2272.0 2827.0 1821.0 17152
2272.0 2832.0 1894.0 15994
2272.0 2922.0 1888.0 14389
2273.0 1757.0 1837.0 15772
2273.0 1771.0 1829.0 15890
2273.0 2077.0 1876.0 10040
2273.0 2166.0 1855.0 16202
2273.0 2281.0 1769.0 15854
2273.0 2401.0 1853.0 16453
2273.0 2416.0 1765.0 21958
2273.0 2444.0 1753.0 16453
2273.0 2611.0 1783.0 16453
2273.0 2627.0 1817.0 16453
2273.0 2632.0 644.0 16405
2273.0 2692.0 1722.0 16453
2273.0 2706.0 1895.0 11881
2273.0 2720.0 1747.0 16453
2273.0 2726.0 1829.0 16453
2273.0 2772.0 1920.0 16729
2273.0 2783.0 1715.0 16453
2273.0 2921.0 1913.0 16974
2274.0 1720.0 1831.0 17349
2274.0 2025.0 1842.0 17563
2274.0 2042.0 1805.0 12359
2274.0 2051.0 1846.0 16007
2274.0 2060.0 1767.0 16279
2274.0 2068.0 1806.0 18390
2274.0 2228.0 1847.0 22534
2274.0 2412.0 1772.0 18553
2274.0 2420.0 1845.0 16453
2274.0 2456.0 1740.0 17516
2274.0 2495.0 1729.0 16453
2274.0 2620.0 1722.0 16556
2274.0 2624.0 1870.0 13959
2274.0 2627.0 1869.0 13272
2274.0 2843.0 1713.0 16954
2275.0 2024.0 1881.0 21684
2275.0 2039.0 1826.0 16605
2275.0 2196.0 1771.0 16453
2275.0 2250.0 1771.0 17160
2275.0 2254.0 1844.0 16453
2275.0 2337.0 1764.0 16453
2275.0 2486.0 1710.0 17470
2275.0 2567.0 1722.0 16453
2275.0 2576.0 602.0 16466
2275.0 2597.0 1716.0 15386
2275.0 2642.0 1716.0 16453
2275.0 2652.0 1837.0 16453
2275.0 2653.0 1711.0 18802
2275.0 2752.0 1721.0 16453
2275.0 2805.0 1954.0 14150
2275.0 2893.0 1827.0 16453
2276.0 1697.0 1817.0 18489
2276.0 2223.0 1770.0 17782
2276.0 2231.0 1789.0 12408
2276.0 2663.0 1715.0 16453
2276.0 2878.0 1751.0 16453
2276.0 3013.0 1724.0 14617
2277.0 2005.0 1861.0 16453
2277.0 2083.0 1814.0 17891
2277.0 2203.0 1761.0 15860
2277.0 2347.0 1768.0 16453
2277.0 2459.0 1741.0 13002
2277.0 2529.0 1738.0 16453
2277.0 2573.0 1741.0 16453
2277.0 2689.0 1767.0 16453
2277.0 2725.0 1882.0 18476
2277.0 2811.0 1893.0 15075
2277.0 2815.0 1956.0 11031
2277.0 2854.0 1910.0 15431
2277.0 2900.0 1723.0 14281
2278.0 1851.0 1852.0 16453
2278.0 2052.0 1879.0 23430
2278.0 2078.0 1812.0 14564
2278.0 2287.0 1805.0 14689
2278.0 2302.0 1764.0 15855
2278.0 2433.0 1733.0 16826
2278.0 2454.0 1725.0 10741
2278.0 2465.0 1719.0 16804
2278.0 2668.0 1886.0 9997
2279.0 2062.0 1784.0 13802
2279.0 2253.0 1769.0 18298
2279.0 2455.0 1734.0 18083
2279.0 2504.0 1752.0 16453
2279.0 2657.0 1774.0 16157
2279.0 2671.0 1729.0 16453
2279.0 2867.0 1723.0 19331
2280.0 1817.0 1828.0 17382
2280.0 1844.0 1825.0 20716
2280.0 2320.0 1811.0 8306
2280.0 2342.0 1877.0 16453
2280.0 2405.0 1868.0 13562
2280.0 2464.0 1719.0 18784
2280.0 2482.0 1733.0 16453
2280.0 2500.0 1715.0 20925
2281.0 1977.0 1858.0 17547
2281.0 2017.0 1836.0 18114
2281.0 2758.0 1755.0 16453
2281.0 2767.0 1836.0 16453
2281.0 2884.0 1893.0 16233
2282.0 1778.0 1845.0 17744
2282.0 2084.0 1743.0 15825
2282.0 2125.0 1825.0 13462
2282.0 2373.0 1768.0 16578
2282.0 2741.0 1739.0 16453
2282.0 2748.0 1798.0 16453
2282.0 2869.0 1889.0 20941
2283.0 1818.0 1826.0 19703
2283.0 1844.0 1845.0 16187
2283.0 2115.0 1753.0 16544
2283.0 2329.0 1780.0 16453
2283.0 2496.0 1713.0 16036
2283.0 2686.0 1718.0 16453
2283.0 2692.0 1883.0 16453
2283.0 2726.0 1717.0 16453
2284.0 2252.0 1811.0 15235
2284.0 2664.0 1892.0 16453
2284.0 2793.0 1960.0 16900
2284.0 2820.0 1893.0 16453
2285.0 2133.0 1746.0 16258
2285.0 2138.0 1801.0 15349
2285.0 2159.0 1815.0 16453
2285.0 2493.0 1712.0 21126
2285.0 2544.0 1723.0 16453
2285.0 2650.0 1726.0 16453
2285.0 2722.0 1795.0 16453
2285.0 2974.0 1971.0 16685
2286.0 1960.0 1805.0 17264
2286.0 2067.0 1760.0 16079
2286.0 2112.0 1756.0 16270
2286.0 2184.0 1877.0 16628
2286.0 2327.0 1843.0 20140
2286.0 2428.0 1728.0 13161
2286.0 2493.0 1846.0 10553
2286.0 2685.0 1800.0 16453
2287.0 1779.0 1846.0 13436
2287.0 1841.0 1809.0 14458
2287.0 1924.0 1796.0 16453
2287.0 1958.0 1833.0 16956
2287.0 1964.0 1786.0 14908
2287.0 2081.0 1882.0 14867
2287.0 2082.0 1737.0 18203
2287.0 2098.0 1737.0 19661
2287.0 2154.0 1759.0 16453
2287.0 2174.0 1761.0 19804
2287.0 2387.0 1738.0 15719
2287.0 2635.0 1736.0 16453
2287.0 2717.0 1760.0 17884
2287.0 2970.0 1672.0 16176
2288.0 1833.0 1834.0 22093
2288.0 1879.0 1800.0 17825
2288.0 1942.0 1814.0 19438
2288.0 2518.0 1807.0 16453
2288.0 2527.0 1717.0 16509
2288.0 2592.0 740.0 15655
2288.0 2739.0 1892.0 16453
2288.0 2817.0 1760.0 16654
2288.0 2967.0 1866.0 15617
2289.0 1931.0 1777.0 15292
2289.0 1999.0 1814.0 15608
2289.0 2118.0 1880.0 16672
2289.0 2258.0 1792.0 9673
2289.0 2419.0 1753.0 18006
2289.0 2571.0 1854.0 18903
2289.0 2593.0 1728.0 18255
2289.0 2680.0 1740.0 16453
2289.0 2778.0 1400.0 15194
2289.0 2811.0 1876.0 14455
2289.0 2910.0 1947.0 16453
2290.0 2082.0 1781.0 15184
2290.0 2137.0 1881.0 21273
2290.0 2174.0 1876.0 14366
2290.0 2242.0 1862.0 12473
2290.0 2477.0 1786.0 16453
2290.0 2590.0 1731.0 15304
2290.0 2689.0 1751.0 16453
2290.0 2698.0 1828.0 16453
2290.0 2774.0 1731.0 18406
2290.0 3088.0 1922.0 15892
2291.0 1818.0 1842.0 21925
2291.0 2002.0 1808.0 15795
2291.0 2120.0 1763.0 14137
2291.0 2176.0 1767.0 16453
2291.0 2216.0 1857.0 16873
2291.0 2305.0 1854.0 21293
2291.0 2369.0 1760.0 16453
2291.0 2426.0 1856.0 14059
2291.0 2625.0 1741.0 17217
2291.0 2801.0 1726.0 17790
2291.0 2815.0 1750.0 17352
2291.0 2899.0 1905.0 16453
2292.0 1750.0 1858.0 16453
2292.0 1763.0 1844.0 19872
2292.0 2004.0 1815.0 16580
2292.0 2191.0 1778.0 16453
2292.0 2497.0 1737.0 16453
2292.0 2514.0 1847.0 12634
2292.0 2707.0 1733.0 16369
2293.0 1964.0 1812.0 17011
2293.0 2203.0 1872.0 17506
2293.0 2300.0 1851.0 20203
2293.0 2494.0 1749.0 16453
2293.0 2561.0 1793.0 16453
2293.0 2610.0 1737.0 16453
2293.0 2624.0 1747.0 16852
2293.0 2661.0 1738.0 13853
2293.0 2851.0 1755.0 17440
2293.0 3045.0 1783.0 14930
2294.0 1798.0 1835.0 10506
2294.0 1913.0 1827.0 16243
2294.0 1953.0 1785.0 16801
2294.0 2214.0 1768.0 18524
2294.0 2268.0 1767.0 15368
2294.0 2278.0 1766.0 16453
2294.0 2338.0 1770.0 17341
2294.0 2436.0 1767.0 16453
2294.0 2453.0 1851.0 16453
2294.0 2473.0 1845.0 14211
2294.0 2684.0 1738.0 14788
2294.0 2747.0 1833.0 16453
2295.0 1775.0 1842.0 19534
2295.0 1785.0 1840.0 18312
2295.0 1807.0 1827.0 19424
2295.0 1847.0 1830.0 32768
2295.0 1884.0 1823.0 15996
2295.0 1913.0 1769.0 16453
2295.0 2085.0 1755.0 16560
2295.0 2085.0 1757.0 17589
2295.0 2101.0 1751.0 16563
2295.0 2117.0 1735.0 20043
2295.0 2174.0 1767.0 14317
2295.0 2337.0 1785.0 16358
2295.0 2380.0 1786.0 16267
2295.0 2490.0 1775.0 16453
2295.0 2552.0 1739.0 17084
2295.0 2573.0 1739.0 17145
2296.0 1855.0 1814.0 12279
2296.0 2061.0 1737.0 20328
2296.0 2626.0 1837.0 16453
2296.0 2722.0 1857.0 16453
2297.0 1928.0 1797.0 16539
2297.0 1998.0 1798.0 18239
2297.0 2056.0 1739.0 8139
2297.0 2069.0 1871.0 11390
2297.0 2085.0 1788.0 16803
2297.0 2149.0 1722.0 17495
2297.0 2177.0 1760.0 24106
2297.0 2368.0 1852.0 16453
2297.0 2460.0 1732.0 16453
2297.0 2536.0 1741.0 16453
2297.0 2718.0 1756.0 16453
2297.0 2740.0 1758.0 16453
2297.0 2750.0 1887.0 16453
2297.0 2810.0 1710.0 12608
2297.0 2931.0 1724.0 15330
2298.0 1897.0 1777.0 14358
2298.0 1910.0 1812.0 16570
2298.0 1996.0 1819.0 16478
2298.0 2027.0 1860.0 16635
2298.0 2044.0 1744.0 13159
2298.0 2055.0 1786.0 12228
2298.0 2207.0 1787.0 16453
2298.0 2268.0 1787.0 16453
2298.0 2271.0 1850.0 16453
2298.0 2333.0 1864.0 9996
2298.0 2335.0 1854.0 16453
2298.0 2382.0 1758.0 16453
2298.0 2445.0 1733.0 15928
2298.0 2606.0 1853.0 16453
2298.0 2618.0 1813.0 16453
2298.0 2628.0 1788.0 16453
2298.0 2680.0 1845.0 16829
2298.0 2839.0 1723.0 16899
2299.0 1821.0 1845.0 16453
2299.0 1827.0 1828.0 17957
2299.0 1899.0 1799.0 20299
2299.0 2047.0 1791.0 14707
2299.0 2084.0 1741.0 15672
2299.0 2119.0 1728.0 10652
2299.0 2245.0 1769.0 15215
2299.0 2304.0 1823.0 18017
2299.0 2364.0 1846.0 16453
2299.0 2403.0 1855.0 16453
2299.0 2493.0 1832.0 16453
2299.0 2520.0 1739.0 16453
2299.0 2648.0 1882.0 13160
2299.0 2743.0 1759.0 17368
2299.0 2744.0 1889.0 16453
2299.0 2756.0 1759.0 16453
2299.0 2780.0 1751.0 16453
2299.0 2886.0 1761.0 15578
2299.0 2890.0 1741.0 15915
2300.0 1806.0 1848.0 7916
2300.0 2228.0 1771.0 17726
2300.0 2287.0 1777.0 15085
2300.0 2311.0 1768.0 16453
2300.0 2380.0 1778.0 15536
2300.0 2395.0 1844.0 16453
2300.0 2406.0 1719.0 17482
2300.0 2418.0 1737.0 16453
2300.0 2529.0 1732.0 16453
2300.0 2636.0 1858.0 16453
2300.0 2669.0 1823.0 16453
2300.0 2780.0 1743.0 16453
2301.0 1845.0 1838.0 21693
2301.0 1981.0 1775.0 17395
2301.0 2102.0 1856.0 15722
2301.0 2202.0 1772.0 16453
2301.0 2310.0 1758.0 28405
2301.0 2315.0 1858.0 15309
2301.0 2334.0 1847.0 16453
2301.0 2397.0 1817.0 16453
2301.0 2466.0 1773.0 16453
2301.0 2497.0 1731.0 18376
2301.0 2565.0 523.0 15480
2301.0 2664.0 1861.0 16453
2301.0 2691.0 1893.0 19089
2301.0 2698.0 1839.0 15126
2301.0 2729.0 1856.0 13033
2301.0 2756.0 1879.0 16453
2301.0 2788.0 1750.0 16435
2301.0 2824.0 1738.0 18405
2302.0 1753.0 1853.0 11103
2302.0 1875.0 1775.0 20017
2302.0 2044.0 1809.0 15166
2302.0 2062.0 1791.0 11412
2302.0 2108.0 1808.0 14135
2302.0 2198.0 1850.0 19689
2302.0 2280.0 1844.0 16453
2302.0 2336.0 1715.0 19062
2302.0 2340.0 1747.0 15987
2302.0 2360.0 1854.0 16453
2302.0 2376.0 1723.0 16172
2302.0 2386.0 1840.0 16453
2302.0 2405.0 1850.0 16453
2302.0 2471.0 1858.0 16453
2302.0 2480.0 1726.0 16634
2302.0 2601.0 1795.0 16453
2302.0 2603.0 1794.0 16453
2302.0 2604.0 1822.0 16453
2302.0 2741.0 1762.0 17466
2302.0 2752.0 1831.0 16453
2302.0 2878.0 1764.0 15437
2303.0 1933.0 1804.0 18502
2303.0 2254.0 1833.0 16453
2303.0 2408.0 1817.0 16453
2303.0 2484.0 1803.0 18558
2303.0 2625.0 1786.0 12642
2303.0 2650.0 1814.0 15949
2303.0 2707.0 1889.0 16453
2303.0 2797.0 1868.0 20972
2303.0 2808.0 1776.0 15237
2304.0 1848.0 1809.0 13165
2304.0 1919.0 1773.0 15895
2304.0 2002.0 1840.0 16646
2304.0 2160.0 1839.0 18096
2304.0 2255.0 1771.0 16521
2304.0 2327.0 1725.0 23079
2304.0 2333.0 1774.0 21036
2304.0 2379.0 1717.0 19059
2304.0 2412.0 1746.0 16453
2304.0 2444.0 1784.0 16453
2304.0 2665.0 1884.0 10730
2304.0 2666.0 1837.0 16712
2304.0 2812.0 1756.0 18688
2304.0 3022.0 1833.0 17278
2305.0 1982.0 1795.0 16136
2305.0 2122.0 1772.0 12108
2305.0 2216.0 1829.0 16453
2305.0 2291.0 1815.0 11133
2305.0 2371.0 1815.0 16453
2305.0 3086.0 2623.0 15691
2306.0 2114.0 1764.0 21388
2306.0 2304.0 1725.0 16453
2306.0 2337.0 1719.0 17065
2306.0 2365.0 1716.0 18695
2306.0 2545.0 1837.0 16453
2306.0 2670.0 1886.0 16453
2306.0 3118.0 2714.0 14847
2307.0 2127.0 1847.0 14753
2307.0 2275.0 1715.0 16453
2307.0 2381.0 1751.0 15808
2307.0 2406.0 1719.0 22149
2307.0 2410.0 1765.0 16453
2307.0 2787.0 1774.0 16453
2308.0 1731.0 1867.0 16453
2308.0 1767.0 1847.0 15278
2308.0 1793.0 1844.0 22088
2308.0 1832.0 1857.0 16453
2308.0 1845.0 1818.0 19660
2308.0 2085.0 1768.0 19843
2308.0 2172.0 1718.0 15125
2308.0 2280.0 1769.0 16279
2308.0 2291.0 1731.0 16453
2308.0 2336.0 1762.0 13924
2308.0 2822.0 1554.0 15793
2309.0 1847.0 1838.0 15856
2309.0 1940.0 1839.0 18287
2309.0 2251.0 1843.0 12117
2309.0 2273.0 1724.0 16973
2309.0 2535.0 1797.0 16453
2309.0 2556.0 1774.0 16108
2310.0 1851.0 1778.0 16453
2310.0 1922.0 1836.0 19176
2310.0 2046.0 1840.0 15882
2310.0 2234.0 1740.0 16765
2310.0 2851.0 1745.0 19072
2310.0 2999.0 1381.0 16040
2311.0 1961.0 1772.0 19455
2311.0 2062.0 1765.0 14647
2311.0 2074.0 1842.0 16334
2311.0 2175.0 1851.0 20285
2311.0 2207.0 1794.0 16453
2311.0 2298.0 1718.0 16453
2311.0 2326.0 1796.0 16453
2311.0 2380.0 1715.0 18229
2311.0 2400.0 1859.0 15407
2311.0 2455.0 1778.0 16453
2311.0 2457.0 1795.0 16453
2312.0 1935.0 1769.0 23052
2312.0 2002.0 1838.0 18100
2312.0 2077.0 1837.0 15697
2312.0 2182.0 1738.0 16453
2312.0 2416.0 1720.0 20792
2312.0 2653.0 803.0 15795
2312.0 3499.0 3917.0 17880
2313.0 1779.0 1853.0 10317
2313.0 1813.0 1829.0 19617
2313.0 1833.0 1834.0 18064
2313.0 1882.0 1833.0 16453
2313.0 1948.0 1797.0 20678
2313.0 1965.0 1769.0 18656
2313.0 2183.0 1789.0 16453
2313.0 2329.0 1766.0 16453
2313.0 2337.0 1740.0 16453
2313.0 2601.0 1870.0 20012
2314.0 1741.0 1854.0 23323
2314.0 1791.0 1843.0 19672
2314.0 1811.0 1820.0 19298
2314.0 1845.0 1832.0 17570
2314.0 2001.0 1776.0 21195
2314.0 2135.0 1808.0 16935
2314.0 2250.0 1721.0 16453
2314.0 2356.0 1752.0 16453
2314.0 2429.0 1746.0 16453
2314.0 2454.0 1744.0 16453
2314.0 2605.0 1868.0 14705
2314.0 2839.0 1769.0 16856
2315.0 1824.0 1840.0 17366
2315.0 2001.0 1841.0 16902
2315.0 2012.0 1782.0 15864
2315.0 2082.0 1837.0 14773
2315.0 2148.0 1776.0 16453
2315.0 2176.0 1711.0 15891
2315.0 2207.0 1735.0 16453
2315.0 2219.0 1788.0 20155
2315.0 2263.0 1810.0 14626
2315.0 2334.0 1717.0 17691
2315.0 2335.0 1850.0 16569
2315.0 2435.0 1864.0 15381
2315.0 2477.0 1748.0 16453
2315.0 2644.0 981.0 15292
2315.0 2959.0 2160.0 15843
2316.0 2161.0 1804.0 16602
2316.0 2189.0 1842.0 16453
2316.0 2217.0 1843.0 16971
2316.0 2301.0 1832.0 17970
2316.0 2750.0 1715.0 16453
2317.0 1778.0 1838.0 16453
2317.0 1842.0 1851.0 16453
2317.0 2154.0 1713.0 13821
2317.0 2176.0 1698.0 19170
2317.0 2254.0 1723.0 16453
2317.0 2383.0 1796.0 16453
2317.0 2403.0 1801.0 16453
2318.0 2001.0 1811.0 15904
2318.0 2046.0 1834.0 16101
2318.0 2136.0 1752.0 15747
2318.0 2137.0 1727.0 12310
2318.0 2166.0 1738.0 16453
2318.0 2169.0 1699.0 19769
2318.0 2297.0 1827.0 17054
2318.0 2372.0 1776.0 16453
2318.0 2836.0 1328.0 18051
2319.0 1865.0 1796.0 16216
2319.0 2128.0 1737.0 15321
2319.0 2158.0 1747.0 16453
2319.0 2201.0 1695.0 16453
2319.0 2244.0 1839.0 15279
2319.0 2245.0 1788.0 14043
2319.0 2259.0 1731.0 16453
2319.0 2358.0 1775.0 16453
2319.0 2491.0 1781.0 16453
2319.0 2659.0 729.0 15929
2319.0 2952.0 1742.0 14881
2320.0 1980.0 1816.0 16457
2320.0 2028.0 1816.0 12353
2320.0 2058.0 1774.0 17354
2320.0 2130.0 1716.0 14759
2320.0 2144.0 1787.0 12712
2320.0 2174.0 1717.0 16453
2320.0 2253.0 1784.0 21101
2320.0 2292.0 1793.0 18012
2320.0 2296.0 1764.0 16453
2320.0 2627.0 1829.0 10878
2320.0 2760.0 1778.0 16453
2321.0 1982.0 1807.0 16078
2321.0 2100.0 1775.0 11605
2321.0 2126.0 1822.0 17107
2321.0 2172.0 1734.0 16453
2321.0 2413.0 1739.0 15655
2321.0 2508.0 1789.0 16453
2321.0 2653.0 1852.0 16453
2321.0 2698.0 900.0 16347
2322.0 1963.0 1814.0 16463
2322.0 2132.0 1739.0 16453
2322.0 2262.0 1790.0 13364
2322.0 2308.0 1774.0 14005
2322.0 2333.0 1832.0 16453
2322.0 2491.0 1780.0 16453
2322.0 2894.0 1883.0 16741
2323.0 1785.0 1867.0 16453
2323.0 1900.0 1815.0 15111
2323.0 2158.0 1707.0 16453
2323.0 2167.0 1811.0 16688
2323.0 2188.0 1687.0 15739
2323.0 2252.0 1727.0 16453
2323.0 2351.0 1730.0 12349
