ply
format ascii 1.0
element vertex 1227
property float x
property float y
property float z
property uint16 refc
element face 0
property list uint8 int32 vertex_index
end_header
1810.00000 2568.00000 1932.00000 15363
1834.00000 2570.00000 1948.00000 16325
1827.00000 2566.00000 1991.00000 14701
1823.00000 2596.00000 1942.00000 15167
1831.00000 2610.00000 1962.00000 16431
1830.00000 2600.00000 2001.00000 12213
1858.00000 2630.00000 1909.00000 16973
1870.00000 2640.00000 1906.00000 10559
1855.00000 2656.00000 1908.00000 16057
1856.00000 2687.00000 1919.00000 17065
1836.00000 2644.00000 1966.00000 15063
1827.00000 2651.00000 1931.00000 15037
1824.00000 2641.00000 1998.00000 14373
1830.00000 2684.00000 1951.00000 14999
1819.00000 2675.00000 1984.00000 15950
1873.00000 2631.00000 1954.00000 10722
1874.00000 2646.00000 1934.00000 12872
1872.00000 2674.00000 1942.00000 15212
1879.00000 2679.00000 1926.00000 16269
1843.00000 2730.00000 1911.00000 13974
1819.00000 2718.00000 1984.00000 15444
1837.00000 2732.00000 1954.00000 14681
1809.00000 2734.00000 1932.00000 15442
1870.00000 2723.00000 1948.00000 16713
1853.00000 2724.00000 1960.00000 15543
1811.00000 2792.00000 1886.00000 15886
1832.00000 2795.00000 1913.00000 14552
1864.00000 2768.00000 1908.00000 15358
1844.00000 2772.00000 1905.00000 15230
1836.00000 2768.00000 1940.00000 15305
1829.00000 2771.00000 1935.00000 15127
1819.00000 2752.00000 1991.00000 17292
1829.00000 2791.00000 1975.00000 15809
1825.00000 2800.00000 1953.00000 16217
1838.00000 2870.00000 1952.00000 11565
1812.00000 2872.00000 1936.00000 13523
1866.00000 2870.00000 1936.00000 13484
1860.00000 2873.00000 1955.00000 13742
1814.00000 2926.00000 1918.00000 15104
1858.00000 2888.00000 1894.00000 11184
1834.00000 2892.00000 1938.00000 16120
1817.00000 2914.00000 1957.00000 16686
1869.00000 2887.00000 1928.00000 13150
1863.00000 2892.00000 1960.00000 14645
1859.00000 2920.00000 1938.00000 15104
1877.00000 2906.00000 1911.00000 12776
1900.00000 2907.00000 1862.00000 14102
1885.00000 2916.00000 1895.00000 9556
1910.00000 2923.00000 1841.00000 14213
1763.00000 2052.00000 2049.00000 17202
1792.00000 2055.00000 2050.00000 14281
1789.00000 2069.00000 2053.00000 17532
1802.00000 2091.00000 2049.00000 14245
1750.00000 2319.00000 2049.00000 14032
1748.00000 2322.00000 2052.00000 16014
1781.00000 2399.00000 2058.00000 14796
1793.00000 2429.00000 2051.00000 12613
1740.00000 2432.00000 2048.00000 25532
1742.00000 2467.00000 2053.00000 15190
1740.00000 2493.00000 2056.00000 18449
1777.00000 2432.00000 2056.00000 15525
1748.00000 2505.00000 2052.00000 15260
1773.00000 2512.00000 2049.00000 11941
1747.00000 2530.00000 2050.00000 16010
1763.00000 2558.00000 2049.00000 16055
1425.00000 3170.00000 2966.00000 14781
1434.00000 3181.00000 2992.00000 17982
1457.00000 3182.00000 3032.00000 16052
1896.00000 3194.00000 2870.00000 13173
1931.00000 3157.00000 2865.00000 17153
1922.00000 3143.00000 2915.00000 14328
2021.00000 3156.00000 2880.00000 17732
2038.00000 3147.00000 2924.00000 16892
2055.00000 3186.00000 2878.00000 16183
2302.00000 1753.00000 1853.00000 24296
2314.00000 1741.00000 1854.00000 12561
2292.00000 1750.00000 1858.00000 15104
2308.00000 1731.00000 1867.00000 15104
2302.00000 1875.00000 1775.00000 18395
2287.00000 1964.00000 1786.00000 15166
2289.00000 1931.00000 1777.00000 14688
2312.00000 1935.00000 1769.00000 11609
2314.00000 2001.00000 1776.00000 11004
2315.00000 2012.00000 1782.00000 14694
2298.00000 2044.00000 1744.00000 13386
2299.00000 2047.00000 1791.00000 17297
2248.00000 1844.00000 1859.00000 17649
2241.00000 1875.00000 1853.00000 15492
2251.00000 1905.00000 1847.00000 16059
2242.00000 1905.00000 1858.00000 15039
2250.00000 1911.00000 1880.00000 12258
2263.00000 1850.00000 1858.00000 16536
2308.00000 1832.00000 1857.00000 15104
2256.00000 1873.00000 1828.00000 26080
2264.00000 1875.00000 1858.00000 18362
2264.00000 1896.00000 1857.00000 13742
2239.00000 1931.00000 1860.00000 17275
2242.00000 1928.00000 1858.00000 15205
2243.00000 1971.00000 1870.00000 10165
2246.00000 1952.00000 1859.00000 11252
2240.00000 2015.00000 1849.00000 23774
2244.00000 1991.00000 1853.00000 19844
2244.00000 2002.00000 1864.00000 16239
2244.00000 2000.00000 1868.00000 9872
2240.00000 2026.00000 1864.00000 9734
2260.00000 1930.00000 1872.00000 15117
2261.00000 1927.00000 1872.00000 16949
2293.00000 1964.00000 1812.00000 11749
2305.00000 1982.00000 1795.00000 16664
2298.00000 2027.00000 1860.00000 13872
2326.00000 1756.00000 1863.00000 22403
2338.00000 1743.00000 1864.00000 15104
2325.00000 1764.00000 1849.00000 12401
2323.00000 1785.00000 1867.00000 15104
2325.00000 1931.00000 1787.00000 17002
2325.00000 1922.00000 1780.00000 18768
2327.00000 1953.00000 1786.00000 16343
2329.00000 1978.00000 1789.00000 18302
2331.00000 1817.00000 1849.00000 18997
2336.00000 1844.00000 1856.00000 16597
2336.00000 1846.00000 1856.00000 15481
2341.00000 1866.00000 1865.00000 15104
2323.00000 1900.00000 1815.00000 15104
2326.00000 2006.00000 1819.00000 19637
2320.00000 2028.00000 1816.00000 10790
2325.00000 2047.00000 1808.00000 11552
2135.00000 2588.00000 605.00000 10389
2168.00000 2574.00000 520.00000 17722
2186.00000 2589.00000 622.00000 11199
2182.00000 2643.00000 817.00000 14011
2187.00000 2644.00000 887.00000 14363
2191.00000 2656.00000 808.00000 14365
2339.00000 2568.00000 642.00000 17625
2342.00000 2607.00000 664.00000 16411
2340.00000 2607.00000 714.00000 14690
2337.00000 2595.00000 787.00000 17779
2325.00000 2605.00000 819.00000 15560
2372.00000 2621.00000 801.00000 15586
2341.00000 2631.00000 883.00000 14705
2325.00000 2681.00000 828.00000 16976
2359.00000 2639.00000 835.00000 15215
2381.00000 2643.00000 893.00000 14864
2321.00000 2698.00000 900.00000 14647
2350.00000 2747.00000 1003.00000 14284
2358.00000 2705.00000 959.00000 15992
2318.00000 2137.00000 1727.00000 19092
2314.00000 2250.00000 1721.00000 14479
2317.00000 2254.00000 1723.00000 19174
2237.00000 2079.00000 1860.00000 7404
2238.00000 2054.00000 1860.00000 11854
2235.00000 2090.00000 1857.00000 12934
2230.00000 2126.00000 1857.00000 17947
2287.00000 2081.00000 1882.00000 13129
2311.00000 2074.00000 1842.00000 15684
2312.00000 2077.00000 1837.00000 10559
2297.00000 2069.00000 1871.00000 11112
2302.00000 2108.00000 1808.00000 18850
2315.00000 2082.00000 1837.00000 14797
2301.00000 2102.00000 1856.00000 15581
2269.00000 2137.00000 1858.00000 16151
2271.00000 2125.00000 1859.00000 15723
2307.00000 2127.00000 1847.00000 17315
2314.00000 2135.00000 1808.00000 15185
2289.00000 2118.00000 1880.00000 15093
2290.00000 2137.00000 1881.00000 18236
2290.00000 2174.00000 1876.00000 10057
2220.00000 2207.00000 1844.00000 15402
2228.00000 2229.00000 1839.00000 12618
2254.00000 2219.00000 1816.00000 16270
2216.00000 2291.00000 1856.00000 11959
2221.00000 2299.00000 1856.00000 10189
2226.00000 2254.00000 1826.00000 20486
2286.00000 2184.00000 1877.00000 14656
2293.00000 2203.00000 1872.00000 8407
2305.00000 2216.00000 1829.00000 13921
2316.00000 2217.00000 1843.00000 16442
2291.00000 2216.00000 1857.00000 11594
2278.00000 2287.00000 1805.00000 13709
2290.00000 2242.00000 1862.00000 16175
2202.00000 2521.00000 1783.00000 16014
2278.00000 2454.00000 1725.00000 17564
2302.00000 2480.00000 1726.00000 13384
2283.00000 2496.00000 1713.00000 19225
2280.00000 2500.00000 1715.00000 14712
2285.00000 2544.00000 1723.00000 15834
2268.00000 2556.00000 1727.00000 17491
2277.00000 2529.00000 1738.00000 16491
2268.00000 2534.00000 1735.00000 13878
2288.00000 2527.00000 1717.00000 15233
2215.00000 2308.00000 1859.00000 18512
2249.00000 2334.00000 1829.00000 16720
2250.00000 2343.00000 1805.00000 16238
2255.00000 2354.00000 1847.00000 25713
2218.00000 2386.00000 1856.00000 17044
2246.00000 2407.00000 1858.00000 13914
2269.00000 2336.00000 1856.00000 22105
2280.00000 2342.00000 1877.00000 14403
2301.00000 2315.00000 1858.00000 15597
2298.00000 2333.00000 1864.00000 12864
2302.00000 2360.00000 1854.00000 15517
2299.00000 2364.00000 1846.00000 12861
2268.00000 2381.00000 1874.00000 15473
2273.00000 2401.00000 1853.00000 16832
2274.00000 2420.00000 1845.00000 14399
2280.00000 2405.00000 1868.00000 16755
2258.00000 2420.00000 1878.00000 13059
2311.00000 2400.00000 1859.00000 16443
2291.00000 2426.00000 1856.00000 18353
2197.00000 2532.00000 1809.00000 15757
2202.00000 2542.00000 1807.00000 14619
2236.00000 2543.00000 1841.00000 20177
2238.00000 2548.00000 1842.00000 14523
2269.00000 2434.00000 1854.00000 15225
2267.00000 2464.00000 1848.00000 15104
2286.00000 2493.00000 1846.00000 12387
2294.00000 2453.00000 1851.00000 15059
2311.00000 2457.00000 1795.00000 11792
2315.00000 2435.00000 1864.00000 10563
2302.00000 2471.00000 1858.00000 16507
2269.00000 2498.00000 1843.00000 15561
2262.00000 2515.00000 1812.00000 15922
2269.00000 2540.00000 1838.00000 14958
2270.00000 2548.00000 1793.00000 16746
2292.00000 2514.00000 1847.00000 17219
2288.00000 2518.00000 1807.00000 15128
2309.00000 2535.00000 1797.00000 18190
2306.00000 2545.00000 1837.00000 12331
2320.00000 2058.00000 1774.00000 12192
2320.00000 2130.00000 1716.00000 16050
2323.00000 2252.00000 1727.00000 8859
2324.00000 2293.00000 1725.00000 10837
2355.00000 2298.00000 1765.00000 15104
2363.00000 2276.00000 1761.00000 19091
2330.00000 2081.00000 1810.00000 14881
2330.00000 2080.00000 1809.00000 13610
2325.00000 2270.00000 1831.00000 15647
2343.00000 2250.00000 1798.00000 16434
2352.00000 2254.00000 1793.00000 16295
2353.00000 2299.00000 1792.00000 11907
2358.00000 2302.00000 1793.00000 17903
2325.00000 2313.00000 1722.00000 13133
2355.00000 2377.00000 1789.00000 14462
2357.00000 2400.00000 1790.00000 19643
2322.00000 2491.00000 1780.00000 20574
2324.00000 2548.00000 1788.00000 16304
2334.00000 2340.00000 1803.00000 17825
2354.00000 2335.00000 1806.00000 12738
2356.00000 2366.00000 1809.00000 14711
2365.00000 2353.00000 1795.00000 12373
2368.00000 2406.00000 1799.00000 16934
2328.00000 2458.00000 1857.00000 12742
2328.00000 2481.00000 1859.00000 14159
2325.00000 2538.00000 1827.00000 13452
2346.00000 2545.00000 1838.00000 16992
2562.00000 2696.00000 1099.00000 14493
2567.00000 2709.00000 1120.00000 10809
2568.00000 2743.00000 1068.00000 14732
2549.00000 2712.00000 1189.00000 15950
2565.00000 2729.00000 1194.00000 14538
2568.00000 2723.00000 1235.00000 15254
2563.00000 2750.00000 1251.00000 17127
2212.00000 2591.00000 1774.00000 15571
2207.00000 2615.00000 1776.00000 19879
2250.00000 2567.00000 1721.00000 17515
2253.00000 2582.00000 1726.00000 14851
2243.00000 2597.00000 1720.00000 17957
2249.00000 2612.00000 1716.00000 14220
2206.00000 2624.00000 1787.00000 19766
2273.00000 2611.00000 1783.00000 15444
2295.00000 2573.00000 1739.00000 15316
2290.00000 2590.00000 1731.00000 15975
2289.00000 2593.00000 1728.00000 16100
2293.00000 2610.00000 1737.00000 14859
2266.00000 2634.00000 1736.00000 17162
2287.00000 2635.00000 1736.00000 13104
2240.00000 2720.00000 1745.00000 14664
2214.00000 2754.00000 1738.00000 16041
2240.00000 2761.00000 1748.00000 15991
2235.00000 2789.00000 1707.00000 14549
2236.00000 2800.00000 1738.00000 12421
2277.00000 2689.00000 1767.00000 12999
2287.00000 2717.00000 1760.00000 15667
2316.00000 2750.00000 1715.00000 15104
2281.00000 2758.00000 1755.00000 15104
2269.00000 2775.00000 1773.00000 11610
2256.00000 2797.00000 1698.00000 16041
2291.00000 2801.00000 1726.00000 17311
2297.00000 2810.00000 1710.00000 17815
2210.00000 2595.00000 1799.00000 20924
2203.00000 2621.00000 1803.00000 16608
2255.00000 2672.00000 1863.00000 15910
2261.00000 2582.00000 1840.00000 16853
2267.00000 2612.00000 1839.00000 15416
2293.00000 2561.00000 1793.00000 15262
2289.00000 2571.00000 1854.00000 12041
2313.00000 2601.00000 1870.00000 22345
2314.00000 2605.00000 1868.00000 16061
2269.00000 2678.00000 1815.00000 14388
2286.00000 2685.00000 1800.00000 16091
2296.00000 2626.00000 1837.00000 14689
2303.00000 2650.00000 1814.00000 14784
2300.00000 2636.00000 1858.00000 15104
2299.00000 2648.00000 1882.00000 14531
2247.00000 2731.00000 1897.00000 11544
2245.00000 2735.00000 1893.00000 12860
2237.00000 2784.00000 1849.00000 13365
2259.00000 2699.00000 1852.00000 10198
2301.00000 2698.00000 1839.00000 17715
2290.00000 2698.00000 1828.00000 14574
2301.00000 2691.00000 1893.00000 14313
2303.00000 2707.00000 1889.00000 15104
2294.00000 2747.00000 1833.00000 14110
2281.00000 2767.00000 1836.00000 15104
2265.00000 2754.00000 1897.00000 11835
2277.00000 2811.00000 1893.00000 18510
2302.00000 2752.00000 1831.00000 15111
2301.00000 2756.00000 1879.00000 18049
2303.00000 2797.00000 1868.00000 13477
2289.00000 2811.00000 1876.00000 14747
2202.00000 2855.00000 1700.00000 14808
2199.00000 2860.00000 1731.00000 15283
2221.00000 2872.00000 1783.00000 15104
2238.00000 2820.00000 1733.00000 11914
2244.00000 2852.00000 1698.00000 15104
2274.00000 2843.00000 1713.00000 18925
2270.00000 2859.00000 1711.00000 15104
2279.00000 2867.00000 1723.00000 13649
2276.00000 2878.00000 1751.00000 15104
2298.00000 2839.00000 1723.00000 18370
2261.00000 2881.00000 1726.00000 15312
2277.00000 2900.00000 1723.00000 17814
2262.00000 2915.00000 1759.00000 13584
2299.00000 2886.00000 1761.00000 16264
2299.00000 2890.00000 1741.00000 18467
2297.00000 2931.00000 1724.00000 14118
2228.00000 2840.00000 1898.00000 15157
2234.00000 2847.00000 1891.00000 10824
2254.00000 2878.00000 1814.00000 15104
2236.00000 2858.00000 1890.00000 19022
2240.00000 2868.00000 1890.00000 16439
2247.00000 2816.00000 1923.00000 13309
2241.00000 2845.00000 1934.00000 16780
2247.00000 2877.00000 1924.00000 14267
2225.00000 2902.00000 1847.00000 16459
2207.00000 2929.00000 1930.00000 12410
2245.00000 2880.00000 1929.00000 13379
2246.00000 2915.00000 1937.00000 12838
2272.00000 2827.00000 1821.00000 15073
2277.00000 2854.00000 1910.00000 14666
2282.00000 2869.00000 1889.00000 12617
2258.00000 2882.00000 1817.00000 15104
2275.00000 2893.00000 1827.00000 15104
2291.00000 2899.00000 1905.00000 15104
2202.00000 2945.00000 1877.00000 14639
2240.00000 2956.00000 1916.00000 16547
2247.00000 2959.00000 1917.00000 16024
2324.00000 2626.00000 1864.00000 10223
2600.00000 2711.00000 1159.00000 17649
2591.00000 2738.00000 1265.00000 17441
2609.00000 2713.00000 1208.00000 16627
2632.00000 2722.00000 1242.00000 16370
2600.00000 2810.00000 1485.00000 15607
2623.00000 2763.00000 1409.00000 16329
2622.00000 2789.00000 1453.00000 14803
2628.00000 2806.00000 1512.00000 13911
2655.00000 2735.00000 1305.00000 17784
2671.00000 2749.00000 1379.00000 11851
2672.00000 2746.00000 1381.00000 12856
2665.00000 2769.00000 1431.00000 15732
2664.00000 2779.00000 1479.00000 14733
2668.00000 2788.00000 1498.00000 15450
2700.00000 2770.00000 1452.00000 14549
2652.00000 2845.00000 1692.00000 15614
2667.00000 2856.00000 1672.00000 18381
2656.00000 2859.00000 1759.00000 16472
2677.00000 2852.00000 1740.00000 16130
2151.00000 3090.00000 2627.00000 16362
2191.00000 3105.00000 2609.00000 15742
2178.00000 3131.00000 2581.00000 12138
2095.00000 3140.00000 2867.00000 16914
2080.00000 3166.00000 2932.00000 16667
2119.00000 3137.00000 2876.00000 16017
1783.00000 1702.00000 2016.00000 10438
1783.00000 1701.00000 2039.00000 18520
1799.00000 1707.00000 2023.00000 13328
1801.00000 1700.00000 2026.00000 11922
1793.00000 1719.00000 2030.00000 13159
1799.00000 1713.00000 2016.00000 15104
1775.00000 1732.00000 2025.00000 13207
1775.00000 1765.00000 2043.00000 12482
1763.00000 1772.00000 2034.00000 14888
1762.00000 1776.00000 2030.00000 12678
1775.00000 1777.00000 2040.00000 12811
1779.00000 1748.00000 2019.00000 13773
1787.00000 1751.00000 2032.00000 19409
1804.00000 1735.00000 2031.00000 15104
1759.00000 1794.00000 2046.00000 15104
1753.00000 1812.00000 2032.00000 11013
1752.00000 1813.00000 2034.00000 11188
1768.00000 1809.00000 2044.00000 15104
1764.00000 1815.00000 2042.00000 16909
1745.00000 1825.00000 2034.00000 15104
1750.00000 1847.00000 2038.00000 20231
1751.00000 1853.00000 2030.00000 15597
1763.00000 1824.00000 2026.00000 17599
1780.00000 1844.00000 2033.00000 12602
1781.00000 1853.00000 2045.00000 27752
1793.00000 1840.00000 2039.00000 13831
1789.00000 1863.00000 2026.00000 13440
1800.00000 1868.00000 2033.00000 21423
1790.00000 1900.00000 2019.00000 17640
1791.00000 1914.00000 2041.00000 15104
1804.00000 1897.00000 1999.00000 15612
1796.00000 1904.00000 2022.00000 17340
1804.00000 1909.00000 2018.00000 19196
1735.00000 1980.00000 2039.00000 15502
1740.00000 2018.00000 2033.00000 14528
1740.00000 2022.00000 2035.00000 16237
1731.00000 2033.00000 2047.00000 13560
1739.00000 2037.00000 2033.00000 14589
1756.00000 1922.00000 2032.00000 15499
1758.00000 1933.00000 2045.00000 14109
1760.00000 1927.00000 2042.00000 18134
1759.00000 1958.00000 2033.00000 12647
1746.00000 1961.00000 2045.00000 14970
1749.00000 1973.00000 2032.00000 13302
1761.00000 1978.00000 2025.00000 13768
1787.00000 1936.00000 2011.00000 15351
1790.00000 1944.00000 2040.00000 10341
1800.00000 1921.00000 1991.00000 15104
1792.00000 1923.00000 2007.00000 15959
1794.00000 1927.00000 2034.00000 15104
1801.00000 1947.00000 1987.00000 15104
1793.00000 1948.00000 2012.00000 16917
1804.00000 1942.00000 2024.00000 15104
1792.00000 1947.00000 2044.00000 16513
1791.00000 1977.00000 2019.00000 15104
1792.00000 1961.00000 2002.00000 15104
1798.00000 1964.00000 1990.00000 15104
1793.00000 1959.00000 2022.00000 15104
1793.00000 1981.00000 1999.00000 13158
1792.00000 1982.00000 1998.00000 17156
1760.00000 2023.00000 2023.00000 16587
1763.00000 2029.00000 2021.00000 14638
1760.00000 2038.00000 2042.00000 14785
1787.00000 1987.00000 2041.00000 17136
1790.00000 2003.00000 2005.00000 14896
1793.00000 1985.00000 1996.00000 17192
1802.00000 2006.00000 1996.00000 15299
1798.00000 2015.00000 2003.00000 14735
1778.00000 2018.00000 2025.00000 15188
1776.00000 2035.00000 2022.00000 16478
1796.00000 2019.00000 2009.00000 15773
1795.00000 2025.00000 2030.00000 16534
1798.00000 2028.00000 2016.00000 17213
1797.00000 2041.00000 2001.00000 16816
1822.00000 1891.00000 2013.00000 14412
1810.00000 1892.00000 2043.00000 10501
1819.00000 1903.00000 2019.00000 11922
1824.00000 1898.00000 1990.00000 12287
1822.00000 1923.00000 2035.00000 16010
1818.00000 1949.00000 1990.00000 12526
1810.00000 1945.00000 2044.00000 15104
1823.00000 1949.00000 2036.00000 10717
1838.00000 1923.00000 1989.00000 18533
1832.00000 1931.00000 2014.00000 15028
1832.00000 1948.00000 2000.00000 18050
1830.00000 1943.00000 2023.00000 15852
1822.00000 1968.00000 1995.00000 15104
1839.00000 1952.00000 1989.00000 8980
1837.00000 1956.00000 1997.00000 13762
1813.00000 2019.00000 1984.00000 15233
1819.00000 2031.00000 2030.00000 11255
1814.00000 2039.00000 1993.00000 15151
1824.00000 2043.00000 1992.00000 15142
1756.00000 1830.00000 2049.00000 16099
1757.00000 1838.00000 2072.00000 18051
1751.00000 1850.00000 2058.00000 14128
1771.00000 1850.00000 2068.00000 16707
1765.00000 1852.00000 2071.00000 32768
1789.00000 1814.00000 2080.00000 19573
1786.00000 1817.00000 2084.00000 21836
1788.00000 1833.00000 2072.00000 14925
1791.00000 1839.00000 2063.00000 9553
1786.00000 1848.00000 2057.00000 16124
1805.00000 1832.00000 2051.00000 15248
1792.00000 1851.00000 2078.00000 14570
1752.00000 1865.00000 2053.00000 12041
1766.00000 1880.00000 2064.00000 16018
1766.00000 1881.00000 2064.00000 12589
1790.00000 1864.00000 2052.00000 24314
1785.00000 1872.00000 2062.00000 9619
1799.00000 1874.00000 2061.00000 22250
1804.00000 1876.00000 2055.00000 21056
1721.00000 1988.00000 2050.00000 15104
1735.00000 1995.00000 2050.00000 17274
1732.00000 2014.00000 2051.00000 17553
1758.00000 1957.00000 2049.00000 14806
1755.00000 1960.00000 2050.00000 13406
1744.00000 1973.00000 2050.00000 16354
1809.00000 1787.00000 2064.00000 15232
1823.00000 1777.00000 2081.00000 18116
1824.00000 1776.00000 2081.00000 21028
1810.00000 1828.00000 2059.00000 15611
1818.00000 1841.00000 2071.00000 11697
1812.00000 1846.00000 2057.00000 6610
1817.00000 1845.00000 2091.00000 14569
1809.00000 1857.00000 2058.00000 16544
1823.00000 1859.00000 2074.00000 3616
1820.00000 1872.00000 2057.00000 21397
1823.00000 1879.00000 2066.00000 13728
1824.00000 1860.00000 2097.00000 9670
1825.00000 1881.00000 2070.00000 3923
1826.00000 1877.00000 2091.00000 18093
1743.00000 2061.00000 2046.00000 12185
1741.00000 2063.00000 2030.00000 14492
1737.00000 2074.00000 2038.00000 13704
1741.00000 2144.00000 2021.00000 14264
1732.00000 2170.00000 2025.00000 21384
1735.00000 2173.00000 2025.00000 13736
1751.00000 2074.00000 2037.00000 8721
1763.00000 2053.00000 2021.00000 15361
1760.00000 2056.00000 2022.00000 16413
1772.00000 2068.00000 1989.00000 16870
1751.00000 2089.00000 2036.00000 15166
1758.00000 2110.00000 1993.00000 19773
1762.00000 2085.00000 1993.00000 20081
1764.00000 2082.00000 2039.00000 14476
1769.00000 2089.00000 2019.00000 12587
1774.00000 2096.00000 1992.00000 19900
1764.00000 2100.00000 2023.00000 12566
1774.00000 2100.00000 2047.00000 13483
1784.00000 2057.00000 2010.00000 12678
1800.00000 2052.00000 2023.00000 13522
1795.00000 2074.00000 2030.00000 18597
1806.00000 2088.00000 1992.00000 14321
1792.00000 2095.00000 1993.00000 12108
1806.00000 2104.00000 2005.00000 18181
1753.00000 2115.00000 2042.00000 18863
1750.00000 2131.00000 2036.00000 13435
1745.00000 2133.00000 2027.00000 14776
1764.00000 2112.00000 2020.00000 14282
1767.00000 2125.00000 2026.00000 13071
1773.00000 2136.00000 2044.00000 14153
1748.00000 2156.00000 2032.00000 16153
1767.00000 2144.00000 2026.00000 15347
1764.00000 2164.00000 1985.00000 15623
1765.00000 2173.00000 1991.00000 14127
1767.00000 2165.00000 2026.00000 15454
1787.00000 2118.00000 1965.00000 2605
1776.00000 2123.00000 1976.00000 15104
1791.00000 2133.00000 1968.00000 16240
1804.00000 2129.00000 1974.00000 23983
1805.00000 2139.00000 1953.00000 16310
1788.00000 2125.00000 1993.00000 13248
1790.00000 2123.00000 2047.00000 15081
1796.00000 2136.00000 1988.00000 13169
1800.00000 2140.00000 1989.00000 18974
1797.00000 2132.00000 2023.00000 12392
1802.00000 2135.00000 2037.00000 15455
1785.00000 2153.00000 1971.00000 14881
1806.00000 2164.00000 1964.00000 15937
1802.00000 2172.00000 1967.00000 16412
1788.00000 2148.00000 2046.00000 14831
1789.00000 2168.00000 2044.00000 15389
1805.00000 2157.00000 2024.00000 14202
1797.00000 2161.00000 2030.00000 16216
1728.00000 2209.00000 2007.00000 17727
1728.00000 2214.00000 2005.00000 13887
1735.00000 2212.00000 2024.00000 13567
1747.00000 2191.00000 2027.00000 14381
1754.00000 2197.00000 2045.00000 13307
1748.00000 2207.00000 2023.00000 14994
1774.00000 2181.00000 1986.00000 15576
1768.00000 2176.00000 2030.00000 13677
1765.00000 2180.00000 2024.00000 16326
1766.00000 2206.00000 1992.00000 14448
1768.00000 2207.00000 1984.00000 13042
1769.00000 2207.00000 2029.00000 13538
1756.00000 2210.00000 2010.00000 16386
1745.00000 2229.00000 2035.00000 12696
1762.00000 2210.00000 1984.00000 15278
1769.00000 2229.00000 2003.00000 11557
1775.00000 2234.00000 2028.00000 17901
1782.00000 2195.00000 1971.00000 16044
1806.00000 2206.00000 1969.00000 14059
1798.00000 2207.00000 1965.00000 15104
1785.00000 2203.00000 2039.00000 15232
1794.00000 2184.00000 1995.00000 13984
1794.00000 2179.00000 2037.00000 16420
1801.00000 2186.00000 2023.00000 14421
1805.00000 2207.00000 2036.00000 15857
1780.00000 2216.00000 1972.00000 15452
1804.00000 2237.00000 1976.00000 13296
1761.00000 2270.00000 1991.00000 14630
1772.00000 2257.00000 2032.00000 14280
1769.00000 2260.00000 2016.00000 17036
1757.00000 2279.00000 2006.00000 13608
1755.00000 2283.00000 2006.00000 10107
1744.00000 2272.00000 2024.00000 16074
1748.00000 2279.00000 2045.00000 16638
1773.00000 2278.00000 2030.00000 14661
1774.00000 2284.00000 2030.00000 15121
1783.00000 2243.00000 1970.00000 15104
1787.00000 2249.00000 2035.00000 14532
1787.00000 2267.00000 2033.00000 14818
1803.00000 2255.00000 2032.00000 10064
1805.00000 2262.00000 2028.00000 14428
1786.00000 2276.00000 1975.00000 15518
1778.00000 2279.00000 1974.00000 14609
1797.00000 2296.00000 1973.00000 14929
1805.00000 2297.00000 1976.00000 13718
1791.00000 2296.00000 2029.00000 14293
1805.00000 2273.00000 2029.00000 17665
1801.00000 2281.00000 2025.00000 19308
1803.00000 2288.00000 2007.00000 15423
1742.00000 2341.00000 1993.00000 15071
1736.00000 2356.00000 2009.00000 5215
1732.00000 2360.00000 2006.00000 14828
1740.00000 2362.00000 2033.00000 15378
1729.00000 2371.00000 1991.00000 10865
1732.00000 2387.00000 2003.00000 14680
1727.00000 2400.00000 2006.00000 12541
1725.00000 2420.00000 2004.00000 17037
1723.00000 2430.00000 2008.00000 12331
1742.00000 2423.00000 2030.00000 15162
1765.00000 2323.00000 1966.00000 12541
1747.00000 2307.00000 2005.00000 11371
1747.00000 2311.00000 2005.00000 17241
1756.00000 2305.00000 2025.00000 13302
1745.00000 2320.00000 2009.00000 12633
1772.00000 2307.00000 2002.00000 10880
1764.00000 2318.00000 2033.00000 12125
1760.00000 2320.00000 2031.00000 12505
1774.00000 2335.00000 2042.00000 15367
1755.00000 2338.00000 1974.00000 16938
1758.00000 2345.00000 1975.00000 16406
1766.00000 2343.00000 1969.00000 19169
1745.00000 2341.00000 2029.00000 15299
1757.00000 2367.00000 1996.00000 18053
1762.00000 2346.00000 2009.00000 13972
1782.00000 2318.00000 1977.00000 18292
1801.00000 2306.00000 1977.00000 14370
1804.00000 2319.00000 1972.00000 12310
1776.00000 2317.00000 2006.00000 13302
1781.00000 2315.00000 2033.00000 14385
1803.00000 2313.00000 1985.00000 18062
1797.00000 2320.00000 2033.00000 16501
1783.00000 2338.00000 1967.00000 9796
1781.00000 2341.00000 1976.00000 15167
1800.00000 2341.00000 1971.00000 15748
1805.00000 2345.00000 1974.00000 20759
1784.00000 2351.00000 2002.00000 12516
1776.00000 2357.00000 2013.00000 14621
1779.00000 2355.00000 2045.00000 15279
1789.00000 2357.00000 2042.00000 19268
1804.00000 2343.00000 2012.00000 12774
1799.00000 2350.00000 2039.00000 14706
1807.00000 2363.00000 2037.00000 15924
1752.00000 2394.00000 1975.00000 13279
1751.00000 2397.00000 1971.00000 15918
1758.00000 2419.00000 1979.00000 13069
1759.00000 2426.00000 1964.00000 16189
1764.00000 2414.00000 1956.00000 14473
1761.00000 2427.00000 1958.00000 15050
1805.00000 2399.00000 1968.00000 13469
1801.00000 2371.00000 2009.00000 14847
1802.00000 2387.00000 2042.00000 17184
1805.00000 2396.00000 2043.00000 15069
1784.00000 2420.00000 1945.00000 7350
1805.00000 2405.00000 1968.00000 16655
1802.00000 2413.00000 1964.00000 13703
1726.00000 2432.00000 2006.00000 15955
1726.00000 2433.00000 2005.00000 13228
1723.00000 2452.00000 1985.00000 8738
1722.00000 2461.00000 2015.00000 13262
1728.00000 2441.00000 2021.00000 13776
1740.00000 2445.00000 2037.00000 16090
1737.00000 2463.00000 2037.00000 18149
1720.00000 2484.00000 1982.00000 15517
1720.00000 2494.00000 1974.00000 13881
1741.00000 2476.00000 1980.00000 15707
1718.00000 2491.00000 2008.00000 15378
1735.00000 2470.00000 2004.00000 17221
1732.00000 2476.00000 2013.00000 14972
1733.00000 2495.00000 2004.00000 16333
1742.00000 2480.00000 2030.00000 15080
1733.00000 2494.00000 2018.00000 14419
1721.00000 2496.00000 2001.00000 16631
1722.00000 2497.00000 1994.00000 12516
1722.00000 2523.00000 2006.00000 13707
1738.00000 2506.00000 2026.00000 16078
1737.00000 2519.00000 1990.00000 15501
1739.00000 2526.00000 1997.00000 15593
1723.00000 2542.00000 2016.00000 14448
1719.00000 2551.00000 1997.00000 14680
1717.00000 2554.00000 1989.00000 15291
1731.00000 2540.00000 2035.00000 16843
1731.00000 2559.00000 1984.00000 15334
1733.00000 2557.00000 2027.00000 15578
1759.00000 2441.00000 1955.00000 13665
1752.00000 2451.00000 1978.00000 15586
1761.00000 2440.00000 1950.00000 12712
1764.00000 2433.00000 1977.00000 13990
1774.00000 2463.00000 1953.00000 18301
1756.00000 2466.00000 1966.00000 15645
1758.00000 2482.00000 1944.00000 13756
1757.00000 2484.00000 1971.00000 15359
1745.00000 2495.00000 1958.00000 15432
1764.00000 2488.00000 1954.00000 12243
1760.00000 2490.00000 1975.00000 16443
1790.00000 2438.00000 1971.00000 14588
1785.00000 2458.00000 1949.00000 13576
1782.00000 2456.00000 1975.00000 14830
1790.00000 2462.00000 1958.00000 16872
1805.00000 2443.00000 1963.00000 15420
1800.00000 2443.00000 1976.00000 13992
1805.00000 2457.00000 1957.00000 12993
1791.00000 2450.00000 2024.00000 13539
1803.00000 2435.00000 2047.00000 14687
1806.00000 2447.00000 2042.00000 15117
1806.00000 2448.00000 2046.00000 15767
1799.00000 2467.00000 1955.00000 14768
1799.00000 2493.00000 1950.00000 15007
1793.00000 2489.00000 1969.00000 12708
1799.00000 2495.00000 1958.00000 17142
1786.00000 2484.00000 1995.00000 14254
1799.00000 2466.00000 2046.00000 14055
1805.00000 2492.00000 2036.00000 14694
1799.00000 2493.00000 2040.00000 15683
1758.00000 2500.00000 1949.00000 13398
1755.00000 2527.00000 1940.00000 15396
1767.00000 2501.00000 1936.00000 15686
1762.00000 2502.00000 1962.00000 12806
1754.00000 2531.00000 1975.00000 16866
1768.00000 2529.00000 1924.00000 14507
1762.00000 2531.00000 1953.00000 15162
1760.00000 2554.00000 1933.00000 14211
1768.00000 2557.00000 1922.00000 12599
1786.00000 2502.00000 1926.00000 13359
1784.00000 2512.00000 1953.00000 8771
1794.00000 2496.00000 1968.00000 14046
1797.00000 2503.00000 1964.00000 16078
1802.00000 2518.00000 1937.00000 13582
1788.00000 2513.00000 2003.00000 15755
1790.00000 2519.00000 2044.00000 16198
1807.00000 2519.00000 2025.00000 16055
1787.00000 2559.00000 1944.00000 11668
1781.00000 2544.00000 1953.00000 14871
1794.00000 2547.00000 1979.00000 14842
1806.00000 2549.00000 1959.00000 16116
1810.00000 2068.00000 2003.00000 14665
1814.00000 2068.00000 2046.00000 11461
1826.00000 2050.00000 2020.00000 12365
1836.00000 2073.00000 2005.00000 19431
1831.00000 2065.00000 2022.00000 13271
1831.00000 2069.00000 2025.00000 14339
1842.00000 2083.00000 1967.00000 10117
1843.00000 2085.00000 1958.00000 10797
1846.00000 2093.00000 2018.00000 7859
1848.00000 2103.00000 1994.00000 12471
1844.00000 2111.00000 2025.00000 15757
1818.00000 2131.00000 1979.00000 13920
1809.00000 2133.00000 1971.00000 15666
1809.00000 2133.00000 1992.00000 14220
1818.00000 2131.00000 2036.00000 10109
1817.00000 2133.00000 2040.00000 15829
1828.00000 2122.00000 1997.00000 13425
1821.00000 2149.00000 1959.00000 12036
1827.00000 2163.00000 1978.00000 12556
1824.00000 2172.00000 1973.00000 9282
1855.00000 2132.00000 1986.00000 15601
1846.00000 2134.00000 2020.00000 12918
1847.00000 2147.00000 1946.00000 16791
1849.00000 2159.00000 1964.00000 10854
1842.00000 2173.00000 1953.00000 14017
1859.00000 2158.00000 1981.00000 15457
1857.00000 2161.00000 1958.00000 12601
1863.00000 2174.00000 1977.00000 13768
1819.00000 2209.00000 2029.00000 16306
1823.00000 2214.00000 2020.00000 13414
1818.00000 2236.00000 2011.00000 9125
1827.00000 2208.00000 2011.00000 12748
1825.00000 2211.00000 1987.00000 16081
1850.00000 2178.00000 1975.00000 14652
1853.00000 2180.00000 1981.00000 13945
1852.00000 2194.00000 1954.00000 14034
1856.00000 2183.00000 1952.00000 12973
1867.00000 2204.00000 1951.00000 12911
1866.00000 2205.00000 1973.00000 14277
1870.00000 2206.00000 1981.00000 13274
1872.00000 2179.00000 1956.00000 13944
1877.00000 2182.00000 1977.00000 15145
1881.00000 2194.00000 1957.00000 14983
1895.00000 2185.00000 1968.00000 16602
1895.00000 2185.00000 1980.00000 14001
1897.00000 2204.00000 1976.00000 15161
1896.00000 2204.00000 1981.00000 16598
1882.00000 2210.00000 1958.00000 14847
1875.00000 2230.00000 1976.00000 14482
1888.00000 2209.00000 1976.00000 13765
1891.00000 2225.00000 1962.00000 13422
1872.00000 2210.00000 1993.00000 9952
1881.00000 2214.00000 1997.00000 14284
1889.00000 2230.00000 1985.00000 12463
1874.00000 2275.00000 1982.00000 14613
1815.00000 2315.00000 1994.00000 17343
1809.00000 2316.00000 1984.00000 14703
1815.00000 2332.00000 2002.00000 5840
1815.00000 2368.00000 2019.00000 13817
1811.00000 2398.00000 2001.00000 14063
1823.00000 2399.00000 2002.00000 17586
1819.00000 2393.00000 2023.00000 11197
1820.00000 2394.00000 2026.00000 14934
1823.00000 2413.00000 2005.00000 10100
1819.00000 2405.00000 2025.00000 14620
1809.00000 2407.00000 2043.00000 14623
1821.00000 2427.00000 2029.00000 16792
1866.00000 2404.00000 1949.00000 15593
1868.00000 2400.00000 1977.00000 14740
1870.00000 2406.00000 1969.00000 18203
1865.00000 2428.00000 1941.00000 11834
1860.00000 2431.00000 1963.00000 14207
1881.00000 2321.00000 1964.00000 13159
1874.00000 2327.00000 1978.00000 16984
1880.00000 2373.00000 1971.00000 14609
1890.00000 2378.00000 1967.00000 15376
1874.00000 2407.00000 1974.00000 15396
1873.00000 2423.00000 1976.00000 16512
1881.00000 2423.00000 1962.00000 16634
1889.00000 2418.00000 1965.00000 12275
1819.00000 2439.00000 1972.00000 17609
1812.00000 2454.00000 1974.00000 18042
1819.00000 2432.00000 1993.00000 12092
1830.00000 2447.00000 2010.00000 13171
1830.00000 2449.00000 2010.00000 11434
1814.00000 2492.00000 1938.00000 15014
1810.00000 2494.00000 1977.00000 14931
1831.00000 2473.00000 1937.00000 14377
1838.00000 2494.00000 1924.00000 15060
1828.00000 2493.00000 1962.00000 16835
1822.00000 2468.00000 2031.00000 12882
1835.00000 2474.00000 2001.00000 14394
1832.00000 2493.00000 2019.00000 13133
1844.00000 2456.00000 1937.00000 15792
1848.00000 2458.00000 1951.00000 16534
1850.00000 2454.00000 1959.00000 13736
1866.00000 2433.00000 1941.00000 15184
1868.00000 2444.00000 1965.00000 13064
1867.00000 2450.00000 1978.00000 17638
1852.00000 2473.00000 1933.00000 14276
1841.00000 2475.00000 1974.00000 19677
1848.00000 2492.00000 1945.00000 14297
1846.00000 2482.00000 1967.00000 13419
1869.00000 2490.00000 1969.00000 12853
1871.00000 2491.00000 1973.00000 13629
1809.00000 2496.00000 1925.00000 15803
1808.00000 2498.00000 1951.00000 14329
1837.00000 2507.00000 1921.00000 15411
1824.00000 2514.00000 1949.00000 16512
1833.00000 2523.00000 1960.00000 17160
1820.00000 2552.00000 1945.00000 14737
1828.00000 2536.00000 1941.00000 16010
1835.00000 2540.00000 1934.00000 16840
1853.00000 2498.00000 1956.00000 14526
1851.00000 2520.00000 1937.00000 10942
1863.00000 2500.00000 1975.00000 15835
1841.00000 2559.00000 1981.00000 13989
1864.00000 2536.00000 1921.00000 13863
1862.00000 2542.00000 1947.00000 16240
1857.00000 2531.00000 1978.00000 12793
1857.00000 2533.00000 1957.00000 16705
1871.00000 2546.00000 1926.00000 16744
1875.00000 2433.00000 1951.00000 11896
1873.00000 2462.00000 1969.00000 12571
1713.00000 2585.00000 1977.00000 11637
1738.00000 2566.00000 1958.00000 13957
1742.00000 2582.00000 1951.00000 15531
1738.00000 2587.00000 1949.00000 18135
1728.00000 2577.00000 1973.00000 13600
1716.00000 2567.00000 1999.00000 18837
1716.00000 2574.00000 1994.00000 12453
1726.00000 2587.00000 2020.00000 14723
1728.00000 2562.00000 2022.00000 14304
1739.00000 2564.00000 2041.00000 17181
1722.00000 2595.00000 1965.00000 15126
1726.00000 2603.00000 1982.00000 16405
1724.00000 2619.00000 1964.00000 15780
1725.00000 2622.00000 1959.00000 15297
1743.00000 2595.00000 1981.00000 14870
1741.00000 2616.00000 1948.00000 15775
1714.00000 2594.00000 1995.00000 14199
1714.00000 2619.00000 1990.00000 14800
1723.00000 2618.00000 2017.00000 18418
1714.00000 2626.00000 1989.00000 15412
1720.00000 2629.00000 2004.00000 14312
1724.00000 2648.00000 2023.00000 23311
1748.00000 2588.00000 1995.00000 16036
1756.00000 2577.00000 2047.00000 16872
1770.00000 2572.00000 2042.00000 14616
1762.00000 2578.00000 2047.00000 15551
1755.00000 2604.00000 2041.00000 13981
1769.00000 2593.00000 1989.00000 14081
1766.00000 2623.00000 2024.00000 16928
1782.00000 2563.00000 2041.00000 16330
1776.00000 2577.00000 2044.00000 14870
1780.00000 2591.00000 2016.00000 14090
1804.00000 2562.00000 2025.00000 14097
1795.00000 2566.00000 2031.00000 15525
1800.00000 2605.00000 1924.00000 15621
1795.00000 2596.00000 1952.00000 16229
1792.00000 2621.00000 1939.00000 15958
1802.00000 2620.00000 1957.00000 13281
1756.00000 2624.00000 1948.00000 14732
1767.00000 2624.00000 1930.00000 14757
1762.00000 2628.00000 1970.00000 15431
1764.00000 2653.00000 1929.00000 16148
1749.00000 2642.00000 2042.00000 17143
1759.00000 2654.00000 2018.00000 15480
1775.00000 2629.00000 2016.00000 15109
1757.00000 2664.00000 1951.00000 13343
1759.00000 2659.00000 1978.00000 13354
1750.00000 2669.00000 1952.00000 15203
1744.00000 2683.00000 1969.00000 15143
1774.00000 2686.00000 1952.00000 13012
1750.00000 2662.00000 1994.00000 17243
1751.00000 2683.00000 2012.00000 15202
1751.00000 2681.00000 2042.00000 18799
1775.00000 2682.00000 2026.00000 15819
1775.00000 2685.00000 2033.00000 15947
1791.00000 2625.00000 1948.00000 17515
1788.00000 2651.00000 1942.00000 14356
1799.00000 2631.00000 1921.00000 15314
1801.00000 2639.00000 1947.00000 15862
1800.00000 2673.00000 1929.00000 16971
1796.00000 2675.00000 1920.00000 15149
1793.00000 2680.00000 1970.00000 9752
1777.00000 2679.00000 1996.00000 15868
1802.00000 2665.00000 1994.00000 16185
1792.00000 2660.00000 2030.00000 15584
1798.00000 2687.00000 2015.00000 15952
1795.00000 2687.00000 2015.00000 15981
1698.00000 2728.00000 1999.00000 13294
1697.00000 2737.00000 1993.00000 10304
1702.00000 2744.00000 1992.00000 15566
1722.00000 2690.00000 1952.00000 15011
1720.00000 2697.00000 1973.00000 18342
1739.00000 2699.00000 1943.00000 13514
1734.00000 2699.00000 1954.00000 14079
1722.00000 2695.00000 1992.00000 14611
1716.00000 2708.00000 2010.00000 16252
1742.00000 2691.00000 2005.00000 14947
1738.00000 2694.00000 1989.00000 16823
1736.00000 2708.00000 1992.00000 14757
1740.00000 2711.00000 2019.00000 13451
1725.00000 2720.00000 1951.00000 13790
1716.00000 2739.00000 1954.00000 15547
1732.00000 2731.00000 1969.00000 13423
1741.00000 2737.00000 1962.00000 16222
1737.00000 2745.00000 1966.00000 13394
1715.00000 2723.00000 1994.00000 15896
1718.00000 2739.00000 1993.00000 15191
1740.00000 2733.00000 1992.00000 14866
1742.00000 2743.00000 1991.00000 14136
1695.00000 2764.00000 2001.00000 9869
1698.00000 2753.00000 2004.00000 15830
1707.00000 2770.00000 1994.00000 14958
1719.00000 2765.00000 1946.00000 15288
1738.00000 2770.00000 1980.00000 13691
1728.00000 2781.00000 1959.00000 10235
1756.00000 2690.00000 1943.00000 16146
1758.00000 2692.00000 1981.00000 14079
1767.00000 2692.00000 1923.00000 14652
1774.00000 2705.00000 1942.00000 16683
1766.00000 2707.00000 1971.00000 13999
1745.00000 2727.00000 1999.00000 15971
1758.00000 2728.00000 2032.00000 16028
1751.00000 2751.00000 2005.00000 13667
1757.00000 2738.00000 2038.00000 15185
1752.00000 2748.00000 2024.00000 13469
1769.00000 2736.00000 2031.00000 15888
1796.00000 2698.00000 1971.00000 13880
1804.00000 2699.00000 1961.00000 14125
1803.00000 2711.00000 1935.00000 13719
1785.00000 2721.00000 1925.00000 16281
1787.00000 2725.00000 1960.00000 17206
1799.00000 2747.00000 1958.00000 15026
1788.00000 2744.00000 1984.00000 15971
1791.00000 2749.00000 2020.00000 17625
1795.00000 2791.00000 1917.00000 14020
1792.00000 2799.00000 1916.00000 14097
1807.00000 2813.00000 1900.00000 9779
1747.00000 2779.00000 1950.00000 13992
1761.00000 2761.00000 1922.00000 13582
1769.00000 2768.00000 1978.00000 12854
1753.00000 2781.00000 2003.00000 14874
1749.00000 2782.00000 2005.00000 15994
1766.00000 2759.00000 2024.00000 15535
1773.00000 2762.00000 2026.00000 16470
1767.00000 2782.00000 2039.00000 12975
1769.00000 2782.00000 2036.00000 15674
1745.00000 2799.00000 1948.00000 14921
1753.00000 2798.00000 1982.00000 17174
1762.00000 2797.00000 1924.00000 14106
1760.00000 2798.00000 1925.00000 15366
1763.00000 2815.00000 1940.00000 15233
1805.00000 2752.00000 1956.00000 13063
1792.00000 2768.00000 1943.00000 15953
1807.00000 2768.00000 1932.00000 14060
1790.00000 2794.00000 1975.00000 15358
1804.00000 2784.00000 1941.00000 17475
1797.00000 2814.00000 1933.00000 15836
1793.00000 2801.00000 1955.00000 12888
1797.00000 2786.00000 2010.00000 15480
1799.00000 2800.00000 2003.00000 15839
1794.00000 2805.00000 2001.00000 15279
1714.00000 2816.00000 1952.00000 12788
1731.00000 2829.00000 1979.00000 12310
1743.00000 2835.00000 1946.00000 17964
1740.00000 2842.00000 1944.00000 18000
1716.00000 2861.00000 1960.00000 8395
1733.00000 2848.00000 1923.00000 15593
1743.00000 2879.00000 1929.00000 14494
1747.00000 2841.00000 2005.00000 22481
1761.00000 2821.00000 1994.00000 14917
1773.00000 2840.00000 1996.00000 10049
1774.00000 2849.00000 1994.00000 15104
1761.00000 2853.00000 1999.00000 13926
1760.00000 2853.00000 2037.00000 13663
1784.00000 2822.00000 1936.00000 10289
1789.00000 2846.00000 1927.00000 15212
1797.00000 2822.00000 1947.00000 14074
1795.00000 2840.00000 1950.00000 14391
1793.00000 2834.00000 1970.00000 19402
1776.00000 2852.00000 1968.00000 13785
1798.00000 2849.00000 1955.00000 17684
1801.00000 2877.00000 1947.00000 14464
1777.00000 2859.00000 2000.00000 15104
1777.00000 2849.00000 2025.00000 16667
1787.00000 2869.00000 2035.00000 22214
1793.00000 2853.00000 2000.00000 16089
1769.00000 2886.00000 2007.00000 12801
1775.00000 2893.00000 2038.00000 15604
1765.00000 2910.00000 2028.00000 10224
1773.00000 2916.00000 1995.00000 16368
1769.00000 2919.00000 1987.00000 18473
1766.00000 2943.00000 1999.00000 15104
1780.00000 2884.00000 1966.00000 14838
1790.00000 2899.00000 1938.00000 12685
1796.00000 2884.00000 1927.00000 15947
1796.00000 2891.00000 1978.00000 13295
1847.00000 2577.00000 1916.00000 15988
1869.00000 2565.00000 1913.00000 14157
1870.00000 2570.00000 1913.00000 13700
1863.00000 2579.00000 1906.00000 17697
1851.00000 2573.00000 1959.00000 12879
1856.00000 2562.00000 1941.00000 13115
1860.00000 2577.00000 1955.00000 20227
1861.00000 2582.00000 1956.00000 17056
1845.00000 2605.00000 1929.00000 15057
1870.00000 2620.00000 1958.00000 15020
1870.00000 2623.00000 1957.00000 13610
1846.00000 2626.00000 1957.00000 14300
1869.00000 2625.00000 1942.00000 15316
1858.00000 2635.00000 1956.00000 14710
1853.00000 2666.00000 1959.00000 16534
1847.00000 2669.00000 1963.00000 16045
1866.00000 2676.00000 1947.00000 16763
1850.00000 2712.00000 1902.00000 15305
1871.00000 2688.00000 1904.00000 18268
1869.00000 2714.00000 1903.00000 14357
1871.00000 2717.00000 1902.00000 13540
1840.00000 2713.00000 1935.00000 14017
1869.00000 2717.00000 1947.00000 15401
1868.00000 2713.00000 1952.00000 15079
1867.00000 2765.00000 1955.00000 14262
1861.00000 2770.00000 1956.00000 16025
1871.00000 2781.00000 1953.00000 14862
1868.00000 2792.00000 1925.00000 15599
1865.00000 2797.00000 1951.00000 15331
1869.00000 2786.00000 1958.00000 15368
1871.00000 2805.00000 1936.00000 21129
1812.00000 2829.00000 1926.00000 14888
1837.00000 2844.00000 1936.00000 14295
1826.00000 2841.00000 1957.00000 17055
1845.00000 2816.00000 1938.00000 16436
1862.00000 2819.00000 1950.00000 16568
1862.00000 2846.00000 1949.00000 15020
1844.00000 2912.00000 1906.00000 15104
1855.00000 2939.00000 1900.00000 10821
1870.00000 2941.00000 1893.00000 12167
1748.00000 2144.00000 2050.00000 13734
1749.00000 2170.00000 2048.00000 18372
1751.00000 2175.00000 2051.00000 19552
1746.00000 2377.00000 2057.00000 25612
1752.00000 2393.00000 2061.00000 15119
1750.00000 2395.00000 2057.00000 14539
1744.00000 2465.00000 2053.00000 13307
1745.00000 2495.00000 2051.00000 11863
1774.00000 2489.00000 2054.00000 16520
2258.00000 1643.00000 1819.00000 20417
2262.00000 1660.00000 1802.00000 15104
2269.00000 1659.00000 1817.00000 15618
2256.00000 1667.00000 1813.00000 18598
2263.00000 1665.00000 1832.00000 15104
2262.00000 1685.00000 1834.00000 7121
2272.00000 1667.00000 1809.00000 12353
2272.00000 1686.00000 1829.00000 10154
2269.00000 1704.00000 1817.00000 14396
2269.00000 1703.00000 1832.00000 9889
2271.00000 1705.00000 1832.00000 12091
2267.00000 1722.00000 1810.00000 14099
2268.00000 1722.00000 1829.00000 14620
2276.00000 1697.00000 1817.00000 14568
2272.00000 1725.00000 1815.00000 15667
2274.00000 1720.00000 1831.00000 16867
2267.00000 1741.00000 1821.00000 9923
2263.00000 1753.00000 1830.00000 14159
2263.00000 1754.00000 1844.00000 20785
2272.00000 1739.00000 1835.00000 12773
2272.00000 1744.00000 1817.00000 15168
2273.00000 1757.00000 1837.00000 9992
2267.00000 1768.00000 1820.00000 15612
2258.00000 1766.00000 1833.00000 23482
2271.00000 1766.00000 1840.00000 3415
2273.00000 1771.00000 1829.00000 18361
2282.00000 1778.00000 1845.00000 16383
2287.00000 1779.00000 1846.00000 17534
2292.00000 1763.00000 1844.00000 20956
2295.00000 1775.00000 1842.00000 9656
2295.00000 1785.00000 1840.00000 19370
2308.00000 1767.00000 1847.00000 17390
2298.00000 1897.00000 1777.00000 13685
2295.00000 1913.00000 1769.00000 15104
2304.00000 1919.00000 1773.00000 17679
2294.00000 1953.00000 1785.00000 15059
2301.00000 1981.00000 1775.00000 13602
2311.00000 1961.00000 1772.00000 14218
2313.00000 1965.00000 1769.00000 14659
2255.00000 1794.00000 1831.00000 19346
2251.00000 1817.00000 1839.00000 15775
2253.00000 1819.00000 1854.00000 14862
2252.00000 1864.00000 1870.00000 12126
2241.00000 1885.00000 1861.00000 15827
2255.00000 1886.00000 1872.00000 15190
2266.00000 1794.00000 1851.00000 15920
2267.00000 1792.00000 1828.00000 15150
2280.00000 1817.00000 1828.00000 13147
2283.00000 1818.00000 1826.00000 10279
2267.00000 1834.00000 1850.00000 17300
2272.00000 1849.00000 1822.00000 15104
2287.00000 1841.00000 1809.00000 23265
2291.00000 1818.00000 1842.00000 11741
2299.00000 1821.00000 1845.00000 15104
2308.00000 1793.00000 1844.00000 20280
2314.00000 1811.00000 1820.00000 13767
2313.00000 1813.00000 1829.00000 23026
2288.00000 1833.00000 1834.00000 24587
2299.00000 1827.00000 1828.00000 8351
2296.00000 1855.00000 1814.00000 15649
2295.00000 1847.00000 1830.00000 12336
2301.00000 1845.00000 1838.00000 22748
2313.00000 1833.00000 1834.00000 18455
2315.00000 1824.00000 1840.00000 21687
2304.00000 1848.00000 1809.00000 21838
2308.00000 1845.00000 1818.00000 14664
2288.00000 1879.00000 1800.00000 14420
2295.00000 1884.00000 1823.00000 17128
2319.00000 1865.00000 1796.00000 20034
2313.00000 1882.00000 1833.00000 15104
2299.00000 1899.00000 1799.00000 10531
2298.00000 1910.00000 1812.00000 15357
2294.00000 1913.00000 1827.00000 13547
2255.00000 2039.00000 1846.00000 14133
2263.00000 1929.00000 1848.00000 15104
2265.00000 1921.00000 1855.00000 21855
2262.00000 1942.00000 1852.00000 15599
2287.00000 1924.00000 1796.00000 15104
2268.00000 1954.00000 1851.00000 14964
2260.00000 1975.00000 1852.00000 16667
2286.00000 1960.00000 1805.00000 15346
2287.00000 1958.00000 1833.00000 17668
2261.00000 1957.00000 1876.00000 16596
2264.00000 1957.00000 1877.00000 14551
2281.00000 1977.00000 1858.00000 13561
2297.00000 1928.00000 1797.00000 15052
2303.00000 1933.00000 1804.00000 18122
2288.00000 1942.00000 1814.00000 16753
2310.00000 1922.00000 1836.00000 15729
2313.00000 1948.00000 1797.00000 14838
2309.00000 1940.00000 1839.00000 15911
2264.00000 1997.00000 1838.00000 14482
2261.00000 2000.00000 1837.00000 16174
2262.00000 2008.00000 1842.00000 12629
2258.00000 1986.00000 1874.00000 17066
2277.00000 2005.00000 1861.00000 20837
2271.00000 2024.00000 1845.00000 15580
2274.00000 2025.00000 1842.00000 16713
2281.00000 2017.00000 1836.00000 4576
2274.00000 2042.00000 1805.00000 15307
2272.00000 2044.00000 1826.00000 6174
2275.00000 2039.00000 1826.00000 5842
2262.00000 2025.00000 1869.00000 14519
2275.00000 2024.00000 1881.00000 14429
2272.00000 2044.00000 1873.00000 14964
2291.00000 2002.00000 1808.00000 15262
2292.00000 2004.00000 1815.00000 15656
2318.00000 2001.00000 1811.00000 13059
2302.00000 2044.00000 1809.00000 13739
2310.00000 2046.00000 1840.00000 14634
2318.00000 2046.00000 1834.00000 16826
2334.00000 1832.00000 1832.00000 20345
2332.00000 1851.00000 1821.00000 12501
2333.00000 1843.00000 1814.00000 16888
2335.00000 1885.00000 1806.00000 15913
2345.00000 1881.00000 1813.00000 15104
2343.00000 1877.00000 1846.00000 29542
2328.00000 1948.00000 1815.00000 13049
2322.00000 1963.00000 1814.00000 15136
2325.00000 1962.00000 1808.00000 19457
2320.00000 1980.00000 1816.00000 17208
2321.00000 1982.00000 1807.00000 14960
2274.00000 2060.00000 1767.00000 20162
2279.00000 2062.00000 1784.00000 20970
2286.00000 2067.00000 1760.00000 17735
2260.00000 2089.00000 1767.00000 24331
2282.00000 2084.00000 1743.00000 16699
